-102.15  -66.978  52.722
-101.86  -67.157  52.743
-101.58  -67.344  52.774
-101.3  -67.538  52.817
-101.03  -67.741  52.875
-100.78  -67.953  52.948
-100.53  -68.172  53.033
-100.3  -68.397  53.128
-100.07  -68.625  53.231
-99.843  -68.857  53.341
-99.627  -69.093  53.458
-99.417  -69.331  53.58
-99.212  -69.571  53.706
-99.012  -69.813  53.836
-98.816  -70.057  53.969
-98.624  -70.303  54.104
-98.436  -70.55  54.243
-98.252  -70.798  54.384
-98.071  -71.048  54.527
-97.892  -71.299  54.671
-97.715  -71.551  54.816
-97.54  -71.803  54.961
-97.366  -72.056  55.107
-97.193  -72.311  55.251
-97.02  -72.566  55.395
-96.847  -72.822  55.537
-96.674  -73.079  55.677
-96.501  -73.337  55.815
-96.327  -73.596  55.951
-96.152  -73.855  56.084
-95.974  -74.115  56.212
-95.794  -74.376  56.335
-95.609  -74.636  56.452
-95.421  -74.897  56.561
-95.226  -75.157  56.661
-95.023  -75.416  56.747
-94.812  -75.673  56.819
-94.596  -75.927  56.882
-94.375  -76.181  56.935
-94.152  -76.433  56.982
-93.925  -76.683  57.021
-93.697  -76.933  57.055
-93.467  -77.181  57.083
-93.236  -77.429  57.108
-93.003  -77.677  57.128
-92.769  -77.923  57.145
-92.535  -78.169  57.157
-92.299  -78.414  57.166
-92.063  -78.658  57.173
-91.826  -78.902  57.177
-91.588  -79.145  57.181
-91.35  -79.388  57.182
-91.112  -79.631  57.183
-90.874  -79.874  57.181
-90.637  -80.117  57.179
-90.4  -80.361  57.175
-90.163  -80.605  57.171
-89.926  -80.849  57.165
-89.69  -81.093  57.159
-89.456  -81.339  57.152
-89.223  -81.587  57.146
-88.992  -81.836  57.14
-88.764  -82.088  57.136
-88.539  -82.344  57.134
-88.321  -82.604  57.135
-88.109  -82.87  57.14
-87.901  -83.139  57.148
-87.695  -83.409  57.157
-87.491  -83.681  57.167
-87.287  -83.953  57.178
-87.084  -84.225  57.19
-86.88  -84.497  57.202
-86.674  -84.767  57.214
-86.466  -85.036  57.226
-86.257  -85.304  57.238
-86.045  -85.57  57.25
-85.831  -85.834  57.261
-85.614  -86.095  57.271
-85.394  -86.355  57.281
-85.172  -86.611  57.288
-84.945  -86.864  57.295
-84.713  -87.113  57.3
-84.476  -87.357  57.305
-84.234  -87.595  57.309
-83.986  -87.828  57.312
-83.732  -88.054  57.315
-83.472  -88.274  57.316
-83.206  -88.485  57.317
-82.932  -88.686  57.317
-82.65  -88.876  57.316
-82.36  -89.054  57.315
-82.061  -89.215  57.314
-81.752  -89.357  57.312
-81.434  -89.476  57.31
-81.109  -89.576  57.308
-80.779  -89.66  57.305
-80.447  -89.73  57.301
-80.112  -89.789  57.295
-79.775  -89.836  57.289
-79.438  -89.873  57.28
-79.099  -89.902  57.269
-78.76  -89.924  57.256
-78.421  -89.938  57.241
-78.081  -89.944  57.224
-77.742  -89.943  57.204
-77.402  -89.937  57.182
-77.063  -89.927  57.158
-76.725  -89.912  57.13
-76.387  -89.894  57.101
-76.049  -89.873  57.068
-75.712  -89.849  57.031
-75.375  -89.824  56.992
-75.039  -89.797  56.948
-74.703  -89.769  56.901
-74.369  -89.739  56.85
-74.034  -89.709  56.794
-73.701  -89.68  56.734
-73.368  -89.654  56.669
-73.037  -89.631  56.599
-72.706  -89.612  56.522
-72.376  -89.6  56.44
-72.048  -89.599  56.35
-71.723  -89.609  56.252
-71.399  -89.625  56.149
-71.078  -89.647  56.04
-70.759  -89.672  55.926
-70.441  -89.701  55.807
-70.126  -89.733  55.684
-69.813  -89.766  55.556
-69.501  -89.8  55.425
-69.191  -89.835  55.289
-68.883  -89.87  55.15
-68.577  -89.906  55.007
-68.272  -89.942  54.86
-67.969  -89.978  54.71
-67.667  -90.011  54.557
-67.367  -90.043  54.401
-67.068  -90.072  54.242
-66.77  -90.099  54.081
-66.473  -90.125  53.916
-66.179  -90.149  53.748
-65.886  -90.172  53.578
-65.594  -90.193  53.404
-65.304  -90.212  53.227
-65.016  -90.23  53.047
-64.73  -90.246  52.864
-64.446  -90.261  52.678
-64.164  -90.273  52.489
-63.883  -90.284  52.297
-63.605  -90.292  52.102
-63.329  -90.299  51.904
-63.056  -90.305  51.701
-62.784  -90.308  51.496
-62.515  -90.31  51.289
-62.248  -90.308  51.079
-61.982  -90.304  50.867
-61.718  -90.296  50.653
-61.455  -90.285  50.437
-61.194  -90.27  50.22
-60.934  -90.251  50.002
-60.675  -90.227  49.783
-60.417  -90.2  49.563
-60.161  -90.167  49.342
-59.906  -90.13  49.12
-59.652  -90.088  48.898
-59.399  -90.042  48.675
-59.148  -89.991  48.452
-58.898  -89.935  48.228
-58.649  -89.874  48.005
-58.401  -89.807  47.782
-58.154  -89.733  47.561
-57.908  -89.653  47.34
-57.664  -89.565  47.121
-57.42  -89.47  46.903
-57.178  -89.368  46.687
-56.937  -89.258  46.474
-56.698  -89.14  46.263
-56.46  -89.013  46.056
-56.224  -88.877  45.853
-55.989  -88.73  45.656
-55.757  -88.573  45.464
-55.527  -88.404  45.28
-55.299  -88.221  45.105
-55.075  -88.026  44.939
-54.854  -87.823  44.78
-54.636  -87.611  44.628
-54.421  -87.392  44.481
-54.21  -87.167  44.339
-54.003  -86.935  44.202
-53.798  -86.697  44.07
-53.598  -86.454  43.942
-53.4  -86.207  43.817
-53.207  -85.955  43.697
-53.016  -85.699  43.58
-52.829  -85.439  43.467
-52.645  -85.174  43.357
-52.465  -84.907  43.25
-52.287  -84.636  43.146
-52.112  -84.364  43.044
-51.938  -84.089  42.944
-51.768  -83.811  42.846
-51.6  -83.531  42.75
-51.436  -83.249  42.656
-51.275  -82.964  42.563
-51.118  -82.677  42.472
-50.963  -82.387  42.383
-50.813  -82.096  42.295
-50.665  -81.802  42.209
-50.521  -81.506  42.124
-50.381  -81.207  42.04
-50.245  -80.907  41.956
-50.114  -80.605  41.873
-49.987  -80.301  41.789
-49.865  -79.995  41.705
-49.749  -79.687  41.62
-49.641  -79.376  41.532
-49.541  -79.064  41.443
-49.446  -78.75  41.353
-49.355  -78.436  41.262
-49.268  -78.12  41.17
-49.183  -77.804  41.079
-49.1  -77.487  40.987
-49.018  -77.17  40.895
-48.937  -76.853  40.803
-48.855  -76.536  40.711
-48.773  -76.219  40.619
-48.691  -75.902  40.527
-48.608  -75.586  40.436
-48.523  -75.269  40.344
-48.437  -74.953  40.252
-48.349  -74.638  40.161
-48.259  -74.323  40.071
-48.166  -74.008  39.982
-48.069  -73.695  39.892
-47.967  -73.383  39.802
-47.86  -73.073  39.712
-47.748  -72.765  39.622
-47.63  -72.459  39.531
-47.506  -72.156  39.441
-47.376  -71.856  39.349
-47.238  -71.559  39.258
-47.09  -71.267  39.166
-46.934  -70.979  39.073
-46.768  -70.698  38.98
-46.59  -70.424  38.886
-46.399  -70.159  38.791
-46.191  -69.907  38.696
-45.969  -69.669  38.6
-45.734  -69.442  38.505
-45.49  -69.225  38.41
-45.238  -69.017  38.316
-44.978  -68.818  38.223
-44.711  -68.629  38.132
-44.439  -68.446  38.041
-44.161  -68.271  37.953
-43.878  -68.104  37.866
-43.591  -67.944  37.78
-43.299  -67.791  37.696
-43.003  -67.645  37.615
-42.704  -67.504  37.534
-42.402  -67.37  37.456
-42.097  -67.24  37.379
-41.79  -67.115  37.305
-41.48  -66.996  37.232
-41.168  -66.881  37.162
-40.853  -66.771  37.094
-40.536  -66.666  37.029
-40.218  -66.566  36.966
-39.897  -66.47  36.905
-39.575  -66.378  36.847
-39.252  -66.289  36.792
-38.927  -66.203  36.74
-38.601  -66.119  36.69
-38.275  -66.036  36.644
-37.948  -65.953  36.601
-37.621  -65.868  36.562
-37.294  -65.783  36.526
-36.966  -65.699  36.493
-36.637  -65.617  36.463
-36.308  -65.537  36.436
-35.978  -65.46  36.412
-35.646  -65.386  36.39
-35.314  -65.316  36.37
-34.981  -65.25  36.353
-34.647  -65.188  36.338
-34.313  -65.13  36.326
-33.977  -65.075  36.316
-33.641  -65.025  36.309
-33.304  -64.98  36.303
-32.967  -64.938  36.3
-32.628  -64.902  36.298
-32.29  -64.871  36.298
-31.951  -64.845  36.3
-31.612  -64.824  36.305
-31.272  -64.809  36.312
-30.932  -64.8  36.321
-30.592  -64.797  36.331
-30.253  -64.799  36.344
-29.913  -64.808  36.36
-29.574  -64.824  36.377
-29.235  -64.847  36.397
-28.897  -64.877  36.418
-28.561  -64.917  36.442
-28.225  -64.966  36.469
-27.892  -65.026  36.498
-27.561  -65.098  36.53
-27.233  -65.179  36.564
-26.906  -65.268  36.6
-26.582  -65.363  36.637
-26.26  -65.465  36.676
-25.94  -65.573  36.717
-25.622  -65.685  36.759
-25.306  -65.802  36.801
-24.991  -65.923  36.845
-24.678  -66.048  36.89
-24.367  -66.176  36.936
-24.057  -66.308  36.982
-23.748  -66.443  37.03
-23.441  -66.58  37.078
-23.134  -66.719  37.127
-22.828  -66.859  37.176
-22.524  -67.001  37.226
-22.219  -67.145  37.276
-21.916  -67.289  37.326
-21.613  -67.435  37.376
-21.31  -67.582  37.426
-21.008  -67.729  37.476
-20.706  -67.877  37.525
-20.404  -68.025  37.574
-20.101  -68.173  37.622
-19.799  -68.321  37.669
-19.495  -68.467  37.715
-19.191  -68.612  37.76
-18.885  -68.755  37.802
-18.578  -68.895  37.842
-18.27  -69.033  37.879
-17.96  -69.169  37.915
-17.649  -69.303  37.949
-17.338  -69.435  37.983
-17.025  -69.565  38.015
-16.712  -69.693  38.047
-16.398  -69.82  38.078
-16.083  -69.944  38.109
-15.767  -70.066  38.139
-15.451  -70.187  38.169
-15.133  -70.304  38.199
-14.815  -70.42  38.229
-14.496  -70.534  38.26
-14.176  -70.646  38.29
-13.856  -70.755  38.322
-13.535  -70.863  38.354
-13.213  -70.967  38.386
-12.89  -71.069  38.418
-12.566  -71.167  38.451
-12.241  -71.261  38.483
-11.915  -71.352  38.515
-11.588  -71.439  38.548
-11.26  -71.522  38.58
-10.931  -71.6  38.613
-10.6  -71.674  38.645
-10.269  -71.742  38.676
-9.9359  -71.804  38.707
-9.6019  -71.86  38.737
-9.2665  -71.908  38.764
-8.9298  -71.948  38.79
-8.5924  -71.981  38.815
-8.2543  -72.008  38.84
-7.9159  -72.029  38.865
-7.5773  -72.044  38.891
-7.2385  -72.053  38.919
-6.8998  -72.057  38.948
-6.5612  -72.057  38.979
-6.2229  -72.051  39.012
-5.8849  -72.041  39.047
-5.5473  -72.026  39.085
-5.2102  -72.007  39.125
-4.8737  -71.985  39.168
-4.5378  -71.959  39.214
-4.2026  -71.929  39.263
-3.8683  -71.896  39.315
-3.5352  -71.859  39.372
-3.2034  -71.817  39.433
-2.8731  -71.771  39.499
-2.5444  -71.72  39.57
-2.2174  -71.666  39.646
-1.8926  -71.607  39.727
-1.5705  -71.543  39.815
-1.2511  -71.475  39.91
-0.93518  -71.401  40.012
-0.62351  -71.323  40.122
-0.3173  -71.237  40.243
-0.017569  -71.146  40.375
0.27627  -71.049  40.516
0.56507  -70.948  40.664
0.84926  -70.844  40.819
1.1289  -70.737  40.98
1.4044  -70.628  41.147
1.6761  -70.517  41.318
1.9444  -70.405  41.495
2.2094  -70.292  41.675
2.4709  -70.179  41.861
2.7293  -70.065  42.05
2.985  -69.951  42.243
3.2382  -69.837  42.439
3.4895  -69.723  42.638
3.739  -69.61  42.839
3.9866  -69.499  43.044
4.2325  -69.389  43.251
4.4768  -69.281  43.462
4.7196  -69.175  43.675
4.961  -69.072  43.891
5.201  -68.972  44.11
5.44  -68.875  44.332
5.6782  -68.782  44.556
5.9159  -68.694  44.782
6.1533  -68.611  45.011
6.3907  -68.534  45.242
6.6285  -68.465  45.475
6.8669  -68.404  45.71
7.1056  -68.348  45.945
7.3444  -68.298  46.182
7.5832  -68.252  46.42
7.8219  -68.21  46.658
8.0606  -68.172  46.897
8.2992  -68.139  47.137
8.5378  -68.109  47.377
8.7765  -68.082  47.618
9.0151  -68.059  47.859
9.2537  -68.039  48.101
9.4923  -68.023  48.342
9.731  -68.01  48.584
9.9698  -68  48.826
10.209  -67.993  49.068
10.447  -67.989  49.31
10.686  -67.987  49.552
10.925  -67.987  49.794
11.163  -67.99  50.036
11.402  -67.996  50.278
11.641  -68.004  50.52
11.881  -68.015  50.761
12.122  -68.029  51
12.363  -68.047  51.239
12.605  -68.067  51.477
12.848  -68.09  51.714
13.091  -68.117  51.95
13.336  -68.147  52.184
13.582  -68.18  52.416
13.83  -68.216  52.646
14.079  -68.256  52.875
14.329  -68.3  53.1
14.582  -68.347  53.323
14.837  -68.399  53.542
15.095  -68.455  53.756
15.356  -68.517  53.965
15.62  -68.583  54.169
15.885  -68.654  54.369
16.152  -68.729  54.566
16.421  -68.807  54.759
16.69  -68.888  54.95
16.96  -68.972  55.138
17.231  -69.058  55.325
17.503  -69.147  55.509
17.775  -69.238  55.69
18.048  -69.332  55.87
18.322  -69.428  56.048
18.595  -69.527  56.224
18.869  -69.628  56.399
19.142  -69.732  56.572
19.416  -69.837  56.744
19.69  -69.942  56.915
19.965  -70.048  57.086
20.239  -70.154  57.257
20.513  -70.26  57.428
20.788  -70.365  57.598
21.063  -70.469  57.77
21.337  -70.571  57.942
21.612  -70.671  58.116
21.886  -70.766  58.292
22.161  -70.856  58.472
22.434  -70.938  58.657
22.706  -71.009  58.848
22.978  -71.073  59.042
23.248  -71.133  59.239
23.518  -71.19  59.438
23.788  -71.245  59.638
24.057  -71.299  59.838
24.326  -71.353  60.039
24.596  -71.408  60.238
24.866  -71.465  60.437
25.136  -71.524  60.634
25.407  -71.586  60.831
25.678  -71.65  61.026
25.949  -71.717  61.22
26.22  -71.788  61.412
26.492  -71.863  61.602
26.764  -71.942  61.79
27.036  -72.026  61.976
27.309  -72.115  62.158
27.582  -72.212  62.336
27.855  -72.315  62.51
28.129  -72.427  62.679
28.402  -72.546  62.842
28.675  -72.673  63
28.948  -72.808  63.152
29.219  -72.953  63.296
29.49  -73.108  63.431
29.758  -73.276  63.555
30.024  -73.455  63.668
30.286  -73.647  63.767
30.543  -73.855  63.848
30.791  -74.08  63.906
31.029  -74.32  63.943
31.258  -74.57  63.964
31.479  -74.828  63.971
31.692  -75.093  63.967
31.896  -75.365  63.952
32.093  -75.641  63.928
32.283  -75.921  63.897
32.466  -76.206  63.861
32.642  -76.493  63.817
32.811  -76.784  63.769
32.975  -77.077  63.715
33.133  -77.373  63.657
33.286  -77.67  63.596
33.437  -77.968  63.532
33.584  -78.267  63.466
33.727  -78.568  63.399
33.866  -78.871  63.332
34.001  -79.176  63.265
34.131  -79.483  63.2
34.257  -79.792  63.137
34.379  -80.104  63.075
34.497  -80.417  63.015
34.611  -80.733  62.961
34.72  -81.051  62.913
34.825  -81.372  62.871
34.926  -81.695  62.84
35.021  -82.021  62.82
35.109  -82.349  62.818
35.19  -82.679  62.836
35.264  -83.009  62.87
35.335  -83.338  62.916
35.402  -83.667  62.971
35.468  -83.995  63.033
35.532  -84.322  63.101
35.597  -84.648  63.173
35.663  -84.973  63.247
35.73  -85.297  63.324
35.799  -85.62  63.404
35.871  -85.943  63.485
35.945  -86.264  63.567
36.022  -86.585  63.648
36.102  -86.905  63.729
36.186  -87.225  63.808
36.275  -87.544  63.885
36.372  -87.862  63.959
36.477  -88.177  64.028
36.591  -88.491  64.094
36.715  -88.802  64.155
36.849  -89.109  64.211
36.994  -89.412  64.262
37.153  -89.71  64.304
37.326  -90  64.337
37.516  -90.282  64.358
37.723  -90.551  64.366
37.951  -90.803  64.355
38.204  -91.027  64.321
38.474  -91.226  64.267
38.755  -91.404  64.198
39.045  -91.564  64.118
39.341  -91.705  64.029
39.641  -91.831  63.931
39.944  -91.945  63.828
40.25  -92.047  63.719
40.557  -92.137  63.606
40.866  -92.217  63.489
41.177  -92.287  63.369
41.488  -92.35  63.246
41.799  -92.407  63.123
42.112  -92.459  63
42.424  -92.508  62.875
42.737  -92.554  62.751
43.05  -92.599  62.626
43.364  -92.643  62.502
43.677  -92.686  62.378
43.991  -92.732  62.255
44.305  -92.784  62.134
44.618  -92.842  62.017
44.931  -92.911  61.903
45.242  -92.996  61.795
45.549  -93.102  61.694
45.853  -93.221  61.599
46.154  -93.35  61.508
46.454  -93.485  61.421
46.752  -93.626  61.337
47.048  -93.77  61.256
47.344  -93.919  61.177
47.639  -94.069  61.101
47.934  -94.221  61.026
48.23  -94.372  60.953
48.526  -94.523  60.882
48.822  -94.675  60.812
49.119  -94.825  60.744
49.417  -94.975  60.678
49.716  -95.124  60.613
50.017  -95.269  60.549
50.319  -95.412  60.487
50.623  -95.55  60.425
50.93  -95.684  60.365
51.239  -95.814  60.306
51.549  -95.939  60.247
51.862  -96.059  60.189
52.177  -96.175  60.131
52.493  -96.285  60.074
52.812  -96.39  60.018
53.132  -96.489  59.962
53.454  -96.583  59.907
53.778  -96.67  59.852
54.104  -96.749  59.796
54.432  -96.821  59.741
54.761  -96.884  59.684
55.092  -96.938  59.626
55.423  -96.981  59.566
55.756  -97.013  59.503
56.089  -97.029  59.436
56.421  -97.03  59.365
56.753  -97.016  59.294
57.085  -96.989  59.223
57.415  -96.948  59.153
57.744  -96.893  59.086
58.071  -96.826  59.022
58.396  -96.747  58.963
58.719  -96.655  58.907
59.038  -96.551  58.857
59.354  -96.434  58.812
59.667  -96.306  58.772
59.975  -96.167  58.739
60.279  -96.017  58.712
60.579  -95.857  58.692
60.872  -95.685  58.681
61.158  -95.502  58.68
61.437  -95.308  58.687
61.707  -95.102  58.705
61.968  -94.886  58.733
62.218  -94.659  58.773
62.457  -94.423  58.824
62.683  -94.177  58.889
62.895  -93.923  58.967
63.09  -93.662  59.062
63.267  -93.394  59.174
63.423  -93.122  59.305
63.56  -92.847  59.45
63.68  -92.57  59.607
63.783  -92.293  59.775
63.87  -92.016  59.951
63.94  -91.739  60.135
63.995  -91.463  60.326
64.034  -91.188  60.523
64.059  -90.915  60.724
64.069  -90.645  60.93
64.065  -90.377  61.139
64.046  -90.113  61.352
64.014  -89.851  61.567
63.969  -89.593  61.783
63.912  -89.337  62
63.843  -89.084  62.217
63.763  -88.836  62.435
63.671  -88.592  62.653
63.567  -88.353  62.871
63.452  -88.119  63.089
63.326  -87.89  63.307
63.19  -87.667  63.524
63.043  -87.449  63.74
62.886  -87.238  63.955
62.72  -87.032  64.169
62.545  -86.833  64.382
62.362  -86.64  64.593
62.17  -86.454  64.803
61.97  -86.275  65.013
61.762  -86.105  65.22
61.545  -85.942  65.425
61.319  -85.787  65.627
61.085  -85.639  65.824
60.844  -85.497  66.017
60.595  -85.361  66.204
60.338  -85.231  66.386
60.075  -85.107  66.562
59.806  -84.988  66.732
59.53  -84.875  66.895
59.248  -84.767  67.051
58.961  -84.663  67.201
58.668  -84.565  67.342
58.369  -84.471  67.476
58.067  -84.381  67.602
57.76  -84.294  67.72
57.45  -84.208  67.829
57.136  -84.125  67.93
56.819  -84.044  68.022
56.499  -83.964  68.104
56.176  -83.884  68.177
55.852  -83.802  68.24
55.527  -83.72  68.292
55.201  -83.633  68.334
54.875  -83.541  68.365
54.55  -83.444  68.386
54.225  -83.344  68.4
53.901  -83.242  68.407
53.577  -83.139  68.406
53.253  -83.035  68.397
52.93  -82.931  68.382
52.607  -82.826  68.359
52.285  -82.722  68.329
51.963  -82.618  68.293
51.642  -82.515  68.249
51.322  -82.413  68.199
51.002  -82.312  68.142
50.684  -82.212  68.079
50.366  -82.113  68.009
50.049  -82.015  67.934
49.733  -81.919  67.853
49.418  -81.825  67.767
49.104  -81.732  67.677
48.79  -81.642  67.58
48.479  -81.553  67.477
48.168  -81.467  67.368
47.86  -81.383  67.252
47.553  -81.302  67.13
47.249  -81.223  67.001
46.946  -81.146  66.866
46.646  -81.072  66.724
46.349  -81.001  66.575
46.055  -80.933  66.419
45.764  -80.869  66.255
45.476  -80.809  66.084
45.193  -80.753  65.904
44.915  -80.703  65.716
44.642  -80.659  65.517
44.379  -80.623  65.306
44.123  -80.596  65.083
43.875  -80.574  64.852
43.632  -80.558  64.614
43.396  -80.546  64.37
43.164  -80.537  64.122
42.936  -80.531  63.869
42.711  -80.528  63.614
42.489  -80.526  63.357
42.27  -80.526  63.097
42.053  -80.527  62.835
41.837  -80.529  62.572
41.623  -80.533  62.308
41.41  -80.536  62.044
41.197  -80.54  61.778
40.984  -80.544  61.513
40.771  -80.547  61.249
40.555  -80.549  60.986
40.336  -80.548  60.725
40.115  -80.545  60.468
39.89  -80.539  60.213
39.661  -80.531  59.961
39.428  -80.519  59.714
39.189  -80.502  59.473
38.943  -80.48  59.239
38.69  -80.451  59.014
38.429  -80.414  58.8
38.158  -80.367  58.6
37.876  -80.308  58.42
37.585  -80.239  58.257
37.29  -80.162  58.107
36.991  -80.08  57.968
36.688  -79.993  57.84
36.383  -79.902  57.72
36.077  -79.808  57.608
35.768  -79.71  57.504
35.458  -79.61  57.406
35.147  -79.508  57.313
34.835  -79.405  57.226
34.523  -79.3  57.143
34.209  -79.194  57.065
33.895  -79.086  56.992
33.58  -78.978  56.922
33.265  -78.869  56.856
32.95  -78.76  56.793
32.634  -78.65  56.731
32.317  -78.541  56.671
32.001  -78.432  56.612
31.684  -78.324  56.554
31.366  -78.216  56.497
31.048  -78.109  56.441
30.73  -78.004  56.385
30.411  -77.899  56.33
30.092  -77.796  56.275
29.772  -77.694  56.22
29.452  -77.593  56.165
29.132  -77.495  56.11
28.81  -77.399  56.052
28.489  -77.306  55.993
28.167  -77.216  55.931
27.845  -77.13  55.865
27.522  -77.049  55.795
27.199  -76.973  55.72
26.877  -76.905  55.635
26.556  -76.846  55.541
26.235  -76.794  55.44
25.915  -76.749  55.334
25.596  -76.708  55.224
25.278  -76.672  55.11
24.96  -76.64  54.993
24.643  -76.611  54.875
24.326  -76.585  54.754
24.01  -76.561  54.631
23.694  -76.541  54.507
23.379  -76.522  54.382
23.063  -76.504  54.256
22.748  -76.487  54.131
22.432  -76.471  54.005
22.116  -76.456  53.88
21.801  -76.442  53.754
21.485  -76.429  53.628
21.17  -76.418  53.501
20.855  -76.407  53.374
20.539  -76.397  53.248
20.224  -76.388  53.121
19.908  -76.379  52.995
19.592  -76.372  52.869
19.276  -76.365  52.745
18.959  -76.358  52.622
18.642  -76.353  52.501
18.324  -76.348  52.38
18.006  -76.342  52.26
17.687  -76.336  52.141
17.369  -76.329  52.023
17.05  -76.321  51.906
16.73  -76.312  51.789
16.411  -76.301  51.672
16.092  -76.288  51.556
15.772  -76.274  51.441
15.453  -76.257  51.326
15.133  -76.239  51.212
14.814  -76.218  51.097
14.494  -76.195  50.983
14.175  -76.169  50.869
13.856  -76.141  50.756
13.536  -76.109  50.643
13.217  -76.073  50.531
12.899  -76.033  50.42
12.58  -75.988  50.31
12.262  -75.939  50.201
11.944  -75.885  50.093
11.626  -75.825  49.987
11.31  -75.758  49.883
10.994  -75.685  49.78
10.679  -75.604  49.681
10.366  -75.514  49.585
10.054  -75.413  49.493
9.7448  -75.304  49.404
9.4371  -75.188  49.318
9.1312  -75.066  49.234
8.827  -74.938  49.151
8.5247  -74.805  49.07
8.2242  -74.668  48.99
7.9255  -74.526  48.911
7.6284  -74.381  48.832
7.333  -74.232  48.753
7.0394  -74.079  48.675
6.7475  -73.923  48.597
6.4574  -73.764  48.519
6.1689  -73.602  48.441
5.8819  -73.437  48.363
5.5964  -73.27  48.284
5.3122  -73.102  48.204
5.0293  -72.931  48.124
4.748  -72.759  48.042
4.4683  -72.584  47.959
4.1902  -72.407  47.875
3.9137  -72.229  47.789
3.6388  -72.049  47.702
3.3656  -71.867  47.614
3.0941  -71.683  47.524
2.8242  -71.498  47.431
2.556  -71.312  47.337
2.2895  -71.124  47.24
2.0247  -70.936  47.14
1.7617  -70.747  47.037
1.5005  -70.557  46.93
1.2414  -70.367  46.819
0.98466  -70.176  46.703
0.73019  -69.986  46.583
0.47786  -69.795  46.458
0.22765  -69.604  46.33
-0.020585  -69.413  46.198
-0.26684  -69.221  46.062
-0.51112  -69.03  45.923
-0.75361  -68.839  45.781
-0.99434  -68.647  45.636
-1.2334  -68.456  45.488
-1.4709  -68.266  45.337
-1.7069  -68.076  45.183
-1.9419  -67.886  45.026
-2.1761  -67.698  44.867
-2.4092  -67.51  44.706
-2.641  -67.323  44.542
-2.8714  -67.137  44.375
-3.1  -66.952  44.205
-3.327  -66.768  44.031
-3.5524  -66.584  43.854
-3.7762  -66.403  43.674
-3.9981  -66.222  43.49
-4.2176  -66.043  43.302
-4.4348  -65.865  43.111
-4.649  -65.687  42.915
-4.8596  -65.511  42.715
-5.0653  -65.335  42.509
-5.2653  -65.16  42.297
-5.4616  -64.986  42.081
-5.6554  -64.814  41.861
-5.8476  -64.645  41.637
-6.0388  -64.478  41.411
-6.2296  -64.315  41.181
-6.421  -64.155  40.95
-6.6134  -64  40.717
-6.8068  -63.848  40.482
-7.0015  -63.701  40.245
-7.198  -63.559  40.007
-7.3963  -63.421  39.768
-7.5969  -63.288  39.528
-7.7999  -63.159  39.287
-8.0061  -63.036  39.046
-8.2161  -62.92  38.806
-8.4304  -62.81  38.565
-8.6494  -62.708  38.326
-8.8731  -62.614  38.088
-9.1018  -62.528  37.852
-9.3356  -62.451  37.617
-9.5758  -62.385  37.386
-9.8224  -62.329  37.159
-10.076  -62.285  36.937
-10.337  -62.255  36.721
-10.607  -62.242  36.515
-10.885  -62.245  36.319
-11.168  -62.261  36.131
-11.455  -62.289  35.951
-11.745  -62.326  35.777
-12.037  -62.372  35.61
-12.331  -62.427  35.448
-12.627  -62.49  35.293
-12.923  -62.56  35.142
-13.221  -62.636  34.996
-13.519  -62.718  34.855
-13.818  -62.806  34.719
-14.117  -62.901  34.587
-14.416  -63.001  34.46
-14.715  -63.105  34.338
-15.015  -63.215  34.219
-15.314  -63.328  34.105
-15.614  -63.444  33.994
-15.913  -63.564  33.886
-16.212  -63.688  33.781
-16.51  -63.815  33.679
-16.808  -63.945  33.58
-17.106  -64.079  33.483
-17.403  -64.215  33.389
-17.699  -64.354  33.298
-17.995  -64.495  33.209
-18.291  -64.639  33.122
-18.586  -64.785  33.035
-18.88  -64.932  32.95
-19.173  -65.08  32.864
-19.466  -65.23  32.777
-19.758  -65.38  32.687
-20.048  -65.529  32.593
-20.338  -65.678  32.494
-20.626  -65.828  32.394
-20.914  -65.978  32.294
-21.202  -66.129  32.195
-21.49  -66.282  32.099
-21.779  -66.435  32.006
-22.069  -66.589  31.917
-22.359  -66.744  31.832
-22.651  -66.901  31.753
-22.943  -67.058  31.678
-23.236  -67.216  31.609
-23.529  -67.376  31.547
-23.823  -67.537  31.491
-24.118  -67.7  31.444
-24.414  -67.862  31.404
-24.712  -68.023  31.373
-25.011  -68.184  31.351
-25.311  -68.343  31.339
-25.612  -68.5  31.336
-25.915  -68.655  31.343
-26.219  -68.807  31.363
-26.524  -68.954  31.395
-26.829  -69.095  31.441
-27.136  -69.228  31.503
-27.443  -69.35  31.584
-27.749  -69.463  31.679
-28.052  -69.57  31.789
-28.354  -69.671  31.91
-28.652  -69.767  32.042
-28.946  -69.86  32.184
-29.237  -69.95  32.336
-29.523  -70.037  32.497
-29.805  -70.123  32.667
-30.083  -70.206  32.845
-30.355  -70.288  33.031
-30.623  -70.369  33.224
-30.886  -70.45  33.423
-31.145  -70.532  33.628
-31.398  -70.614  33.839
-31.646  -70.698  34.057
-31.888  -70.782  34.28
-32.124  -70.867  34.51
-32.353  -70.954  34.745
-32.576  -71.042  34.987
-32.791  -71.133  35.234
-32.999  -71.226  35.486
-33.199  -71.322  35.743
-33.391  -71.422  36.006
-33.573  -71.526  36.273
-33.745  -71.636  36.545
-33.904  -71.752  36.822
-34.053  -71.873  37.103
-34.193  -71.999  37.386
-34.324  -72.128  37.672
-34.447  -72.262  37.959
-34.561  -72.4  38.248
-34.669  -72.541  38.538
-34.769  -72.687  38.829
-34.862  -72.836  39.12
-34.949  -72.989  39.411
-35.029  -73.145  39.702
-35.103  -73.305  39.993
-35.171  -73.467  40.284
-35.235  -73.633  40.574
-35.293  -73.803  40.862
-35.346  -73.978  41.148
-35.396  -74.159  41.432
-35.441  -74.345  41.713
-35.482  -74.536  41.991
-35.521  -74.734  42.265
-35.556  -74.938  42.534
-35.59  -75.151  42.798
-35.623  -75.371  43.055
-35.657  -75.602  43.302
-35.693  -75.841  43.54
-35.729  -76.088  43.772
-35.764  -76.34  43.997
-35.798  -76.597  44.217
-35.831  -76.858  44.432
-35.862  -77.123  44.643
-35.892  -77.391  44.85
-35.919  -77.662  45.055
-35.944  -77.935  45.256
-35.967  -78.21  45.454
-35.987  -78.488  45.649
-36.006  -78.768  45.841
-36.021  -79.049  46.031
-36.034  -79.333  46.218
-36.045  -79.618  46.403
-36.052  -79.904  46.587
-36.057  -80.191  46.768
-36.059  -80.479  46.949
-36.058  -80.767  47.129
-36.054  -81.056  47.309
-36.047  -81.344  47.489
-36.037  -81.633  47.669
-36.025  -81.921  47.849
-36.009  -82.209  48.029
-35.99  -82.495  48.212
-35.968  -82.779  48.397
-35.942  -83.062  48.584
-35.912  -83.341  48.776
-35.878  -83.616  48.973
-35.839  -83.884  49.178
-35.795  -84.145  49.392
-35.748  -84.401  49.61
-35.697  -84.654  49.832
-35.642  -84.904  50.056
-35.585  -85.152  50.281
-35.525  -85.398  50.508
-35.463  -85.644  50.734
-35.398  -85.89  50.96
-35.331  -86.137  51.184
-35.262  -86.383  51.408
-35.191  -86.63  51.63
-35.118  -86.878  51.851
-35.043  -87.127  52.07
-34.966  -87.378  52.287
-34.888  -87.63  52.501
-34.808  -87.884  52.712
-34.726  -88.141  52.92
-34.644  -88.4  53.123
-34.56  -88.663  53.323
-34.476  -88.929  53.517
-34.391  -89.199  53.706
-34.306  -89.472  53.89
-34.22  -89.748  54.068
-34.134  -90.028  54.24
-34.049  -90.314  54.404
-33.964  -90.604  54.56
-33.88  -90.899  54.706
-33.798  -91.2  54.842
-33.719  -91.507  54.965
-33.644  -91.821  55.071
-33.574  -92.142  55.156
-33.509  -92.469  55.224
-33.447  -92.799  55.276
-33.387  -93.131  55.316
-33.329  -93.465  55.343
-33.272  -93.8  55.359
-33.216  -94.135  55.366
-33.16  -94.471  55.365
-33.105  -94.806  55.355
-33.05  -95.141  55.337
-32.994  -95.476  55.313
-32.938  -95.81  55.282
-32.882  -96.143  55.247
-32.824  -96.476  55.207
-32.765  -96.808  55.163
-32.704  -97.139  55.116
-32.641  -97.469  55.064
-32.575  -97.798  55.009
-32.507  -98.126  54.951
-32.436  -98.453  54.891
-32.36  -98.778  54.829
-32.281  -99.103  54.766
-32.195  -99.426  54.704
-32.103  -99.748  54.643
-32.002  -100.07  54.586
-31.893  -100.38  54.533
-31.778  -100.7  54.482
-31.658  -101.01  54.432
-31.535  -101.33  54.384
-31.409  -101.64  54.335
-31.279  -101.95  54.288
-31.148  -102.26  54.241
-31.015  -102.57  54.194
-30.881  -102.88  54.146
-30.745  -103.19  54.098
-30.609  -103.49  54.05
-30.471  -103.8  54.002
-30.332  -104.11  53.954
-30.193  -104.42  53.906
-30.054  -104.72  53.857
-29.915  -105.03  53.808
-29.776  -105.33  53.759
-29.638  -105.64  53.709
-29.501  -105.95  53.658
-29.364  -106.26  53.607
-29.229  -106.56  53.555
-29.095  -106.87  53.503
-28.963  -107.18  53.45
-28.832  -107.49  53.397
-28.703  -107.8  53.343
-28.577  -108.11  53.288
-28.453  -108.42  53.232
-28.333  -108.73  53.175
-28.217  -109.05  53.116
-28.107  -109.36  53.055
-28.002  -109.68  52.992
-27.906  -110  52.924
-27.816  -110.32  52.854
-27.733  -110.64  52.781
-27.654  -110.96  52.708
-27.58  -111.29  52.635
-27.509  -111.61  52.561
-27.441  -111.94  52.489
-27.376  -112.26  52.417
-27.312  -112.59  52.347
-27.251  -112.92  52.279
-27.192  -113.25  52.213
-27.136  -113.57  52.148
-27.081  -113.9  52.086
-27.028  -114.24  52.027
-26.977  -114.57  51.97
-26.928  -114.9  51.916
-26.881  -115.23  51.865
-26.834  -115.56  51.818
-26.787  -115.9  51.775
-26.74  -116.23  51.737
-26.693  -116.57  51.705
-26.645  -116.9  51.677
-26.596  -117.24  51.655
-26.547  -117.58  51.639
-26.496  -117.91  51.63
-26.441  -118.25  51.629
-26.383  -118.58  51.636
-26.32  -118.92  51.651
-26.251  -119.25  51.678
-26.172  -119.58  51.717
-26.082  -119.9  51.77
-25.985  -120.22  51.835
-25.883  -120.53  51.91
-25.779  -120.85  51.993
-25.673  -121.16  52.085
-25.567  -121.46  52.183
-25.463  -121.77  52.289
-25.361  -122.08  52.401
-25.262  -122.38  52.518
-25.166  -122.68  52.641
-25.074  -122.98  52.77
-24.986  -123.28  52.903
-24.902  -123.58  53.041
-24.825  -123.88  53.182
-24.754  -124.18  53.326
-24.689  -124.48  53.472
-24.633  -124.78  53.621
-24.585  -125.08  53.773
-24.547  -125.38  53.929
-24.519  -125.68  54.088
-24.502  -125.98  54.25
-24.495  -126.28  54.414
-24.501  -126.57  54.581
-24.52  -126.87  54.75
-24.554  -127.16  54.921
-24.603  -127.45  55.093
-24.67  -127.73  55.267
-24.757  -128.01  55.44
-24.867  -128.28  55.613
-25.003  -128.54  55.784
-25.159  -128.79  55.952
-25.333  -129.03  56.117
-25.521  -129.27  56.277
-25.725  -129.49  56.432
-25.941  -129.71  56.582
-26.169  -129.91  56.725
-26.407  -130.12  56.862
-26.655  -130.31  56.992
-26.913  -130.49  57.115
-27.179  -130.67  57.23
-27.452  -130.84  57.338
-27.732  -131.01  57.438
-28.018  -131.17  57.531
-28.308  -131.32  57.618
-28.603  -131.47  57.695
-28.904  -131.61  57.762
-29.21  -131.75  57.819
-29.52  -131.88  57.864
-29.834  -132.01  57.898
-30.151  -132.13  57.919
-30.472  -132.24  57.927
-30.794  -132.35  57.921
-31.117  -132.45  57.899
-31.441  -132.55  57.862
-31.764  -132.64  57.806
-32.085  -132.72  57.73
-32.401  -132.8  57.632
-32.713  -132.87  57.518
-33.02  -132.94  57.391
-33.324  -133.01  57.251
-33.623  -133.07  57.101
-33.917  -133.12  56.94
-34.207  -133.18  56.771
-34.492  -133.23  56.593
-34.773  -133.28  56.407
-35.049  -133.32  56.215
-35.321  -133.37  56.016
-35.589  -133.41  55.811
-35.852  -133.45  55.6
-36.11  -133.49  55.382
-36.364  -133.53  55.16
-36.614  -133.57  54.932
-36.86  -133.61  54.701
-37.102  -133.65  54.465
-37.341  -133.68  54.226
-37.576  -133.72  53.983
-37.807  -133.76  53.736
-38.035  -133.8  53.487
-38.26  -133.84  53.235
-38.481  -133.88  52.981
-38.698  -133.93  52.724
-38.912  -133.98  52.465
-39.122  -134.03  52.203
-39.33  -134.09  51.939
-39.534  -134.15  51.675
-39.736  -134.22  51.41
-39.935  -134.3  51.145
-40.131  -134.38  50.879
-40.326  -134.47  50.616
-40.519  -134.57  50.354
-40.711  -134.68  50.096
-40.902  -134.81  49.845
-41.09  -134.94  49.598
-41.275  -135.09  49.355
-41.457  -135.25  49.115
-41.634  -135.42  48.877
-41.806  -135.59  48.641
-41.974  -135.77  48.407
-42.137  -135.96  48.173
-42.294  -136.15  47.94
-42.446  -136.35  47.708
-42.592  -136.55  47.476
-42.734  -136.75  47.245
-42.869  -136.96  47.015
-43  -137.17  46.784
-43.125  -137.39  46.553
-43.245  -137.61  46.322
-43.36  -137.83  46.089
-43.469  -138.05  45.857
-43.571  -138.28  45.623
-43.666  -138.51  45.39
-43.754  -138.74  45.156
-43.835  -138.97  44.922
-43.909  -139.2  44.687
-43.976  -139.44  44.453
-44.034  -139.68  44.218
-44.084  -139.92  43.983
-44.124  -140.16  43.747
-44.154  -140.4  43.51
-44.173  -140.64  43.272
-44.178  -140.89  43.033
-44.166  -141.13  42.793
-44.14  -141.37  42.553
-44.102  -141.6  42.312
-44.054  -141.84  42.073
-43.998  -142.08  41.834
-43.934  -142.31  41.596
-43.865  -142.54  41.359
-43.791  -142.78  41.123
-43.712  -143.01  40.888
-43.629  -143.24  40.654
-43.543  -143.47  40.42
-43.454  -143.7  40.186
-43.363  -143.93  39.954
-43.272  -144.16  39.721
-43.18  -144.4  39.489
-43.088  -144.63  39.257
-42.998  -144.86  39.025
-42.908  -145.09  38.793
-42.821  -145.32  38.56
-42.736  -145.55  38.327
-42.654  -145.79  38.094
-42.577  -146.02  37.86
-42.505  -146.26  37.625
-42.439  -146.49  37.39
-42.382  -146.73  37.155
-42.335  -146.97  36.919
-42.3  -147.22  36.683
-42.277  -147.46  36.447
-42.263  -147.7  36.211
-42.257  -147.95  35.976
-42.259  -148.19  35.74
-42.267  -148.44  35.504
-42.282  -148.68  35.267
-42.304  -148.92  35.03
-42.331  -149.17  34.793
-42.364  -149.41  34.555
-42.404  -149.65  34.317
-42.449  -149.88  34.078
-42.5  -150.12  33.839
-42.556  -150.36  33.599
-42.616  -150.59  33.36
-42.681  -150.82  33.119
-42.751  -151.05  32.878
-42.826  -151.28  32.637
-42.907  -151.5  32.394
-42.994  -151.72  32.15
-43.087  -151.94  31.906
-43.185  -152.15  31.661
-43.29  -152.36  31.414
-43.401  -152.57  31.167
-43.519  -152.77  30.918
-43.642  -152.96  30.668
-43.772  -153.15  30.417
-43.909  -153.33  30.163
-44.053  -153.5  29.907
-44.204  -153.66  29.648
-44.361  -153.81  29.387
-44.524  -153.96  29.126
-44.693  -154.09  28.865
-44.867  -154.23  28.604
-45.046  -154.35  28.344
-45.231  -154.47  28.085
-45.42  -154.59  27.828
-45.614  -154.7  27.572
-45.812  -154.81  27.318
-46.015  -154.91  27.065
-46.222  -155.01  26.815
-46.433  -155.11  26.566
-46.648  -155.2  26.32
-46.866  -155.29  26.075
-47.088  -155.38  25.832
-47.314  -155.46  25.593
-47.543  -155.55  25.356
-47.777  -155.63  25.123
-48.014  -155.71  24.894
-48.256  -155.79  24.668
-48.501  -155.87  24.446
-48.75  -155.95  24.228
-49.003  -156.02  24.015
-49.261  -156.1  23.808
-49.522  -156.19  23.607
-49.788  -156.27  23.413
-50.059  -156.36  23.227
-50.334  -156.46  23.054
-50.614  -156.56  22.89
-50.896  -156.67  22.734
-51.182  -156.78  22.584
-51.47  -156.88  22.44
-51.76  -156.99  22.3
-52.051  -157.1  22.164
-52.345  -157.21  22.031
-52.64  -157.32  21.901
-52.937  -157.43  21.772
-53.234  -157.53  21.645
-53.533  -157.63  21.52
-53.833  -157.73  21.394
-54.133  -157.83  21.269
-54.434  -157.93  21.142
-54.735  -158.02  21.014
-55.036  -158.11  20.884
-55.338  -158.19  20.752
-55.64  -158.27  20.618
-55.942  -158.35  20.483
-56.245  -158.42  20.345
-56.547  -158.49  20.205
-56.849  -158.55  20.062
-57.152  -158.61  19.916
-57.453  -158.65  19.767
-57.754  -158.69  19.614
-58.055  -158.73  19.458
-58.354  -158.75  19.298
-58.651  -158.76  19.134
-58.947  -158.75  18.967
-59.241  -158.73  18.796
-59.531  -158.71  18.621
-59.818  -158.68  18.442
-60.102  -158.64  18.258
-60.381  -158.59  18.07
-60.655  -158.54  17.876
-60.925  -158.48  17.676
-61.189  -158.42  17.471
-61.448  -158.36  17.26
-61.701  -158.29  17.044
-61.948  -158.22  16.821
-62.189  -158.15  16.592
-62.422  -158.07  16.357
-62.648  -157.99  16.117
-62.867  -157.9  15.871
-63.078  -157.82  15.618
-63.28  -157.73  15.359
-63.473  -157.65  15.092
-63.654  -157.56  14.817
-63.825  -157.48  14.536
-63.985  -157.4  14.247
-64.133  -157.32  13.951
-64.268  -157.24  13.648
-64.389  -157.17  13.338
-64.495  -157.11  13.021
-64.585  -157.06  12.698
-64.659  -157.02  12.368
-64.714  -156.99  12.034
-64.748  -156.99  11.696
-64.759  -157  11.357
-64.751  -157.04  11.019
-64.721  -157.08  10.683
-64.674  -157.13  10.35
-64.607  -157.19  10.022
-64.523  -157.25  9.6981
-64.421  -157.31  9.3797
-64.303  -157.37  9.0671
-64.167  -157.43  8.7615
-64.015  -157.49  8.4633
-63.848  -157.55  8.1729
-63.666  -157.61  7.8913
-63.47  -157.66  7.6182
-63.261  -157.7  7.3535
-63.038  -157.73  7.0993
-62.801  -157.76  6.8563
-62.552  -157.78  6.6262
-62.29  -157.78  6.4098
-62.016  -157.77  6.2082
-61.732  -157.75  6.023
-61.438  -157.72  5.8548
-61.137  -157.67  5.706
-60.829  -157.6  5.5768
-60.519  -157.52  5.4701
-60.208  -157.41  5.3861
-59.901  -157.27  5.3289
-59.603  -157.11  5.2974
-59.314  -156.93  5.2859
-59.035  -156.74  5.293
-58.764  -156.54  5.3178
-58.503  -156.32  5.3596
-58.252  -156.1  5.418
-58.011  -155.87  5.4923
-57.78  -155.64  5.5819
-57.56  -155.4  5.6858
-57.35  -155.16  5.8033
-57.149  -154.92  5.934
-56.96  -154.68  6.0775
-56.781  -154.44  6.2334
-56.613  -154.19  6.4014
-56.456  -153.95  6.5806
-56.31  -153.71  6.7703
-56.172  -153.47  6.9699
-56.042  -153.24  7.1785
-55.919  -153.01  7.3958
-55.806  -152.78  7.6217
-55.703  -152.55  7.8554
-55.609  -152.33  8.0968
-55.525  -152.12  8.3453
-55.452  -151.9  8.6008
-55.389  -151.7  8.8628
-55.336  -151.49  9.1307
-55.294  -151.3  9.4039
-55.262  -151.1  9.6822
-55.242  -150.92  9.9654
-55.231  -150.74  10.253
-55.231  -150.56  10.544
-55.241  -150.39  10.838
-55.263  -150.23  11.135
-55.295  -150.07  11.435
-55.338  -149.92  11.737
-55.394  -149.78  12.04
-55.463  -149.64  12.344
-55.544  -149.51  12.649
-55.634  -149.39  12.954
-55.734  -149.28  13.259
-55.842  -149.18  13.564
-55.958  -149.08  13.87
-56.08  -149  14.175
-56.209  -148.92  14.48
-56.342  -148.85  14.784
-56.48  -148.78  15.088
-56.622  -148.73  15.392
-56.769  -148.68  15.695
-56.918  -148.64  15.997
-57.071  -148.6  16.299
-57.226  -148.58  16.6
-57.384  -148.56  16.901
-57.543  -148.54  17.201
-57.704  -148.53  17.501
-57.864  -148.53  17.8
-58.024  -148.53  18.1
-58.183  -148.55  18.401
-58.341  -148.56  18.702
-58.496  -148.59  19.003
-58.65  -148.62  19.305
-58.8  -148.65  19.608
-58.947  -148.69  19.911
-59.089  -148.74  20.216
-59.226  -148.8  20.523
-59.356  -148.86  20.831
-59.478  -148.93  21.141
-59.591  -149  21.453
-59.693  -149.08  21.767
-59.779  -149.17  22.084
-59.851  -149.27  22.401
-59.912  -149.37  22.72
-59.962  -149.48  23.039
-60.003  -149.59  23.357
-60.035  -149.71  23.675
-60.058  -149.82  23.992
-60.073  -149.95  24.309
-60.082  -150.07  24.626
-60.083  -150.2  24.941
-60.076  -150.33  25.256
-60.063  -150.46  25.57
-60.043  -150.59  25.883
-60.017  -150.72  26.195
-59.985  -150.85  26.507
-59.948  -150.99  26.817
-59.907  -151.12  27.127
-59.86  -151.25  27.436
-59.807  -151.38  27.745
-59.747  -151.51  28.053
-59.682  -151.64  28.362
-59.61  -151.77  28.67
-59.532  -151.89  28.977
-59.448  -152.01  29.285
-59.358  -152.12  29.592
-59.261  -152.23  29.899
-59.158  -152.33  30.207
-59.048  -152.43  30.514
-58.933  -152.51  30.822
-58.811  -152.59  31.131
-58.683  -152.65  31.439
-58.55  -152.7  31.748
-58.411  -152.74  32.056
-58.268  -152.77  32.363
-58.119  -152.79  32.668
-57.966  -152.81  32.971
-57.807  -152.82  33.272
-57.645  -152.82  33.57
-57.478  -152.82  33.866
-57.306  -152.81  34.16
-57.13  -152.8  34.451
-56.95  -152.78  34.739
-56.766  -152.76  35.024
-56.579  -152.74  35.306
-56.387  -152.71  35.585
-56.191  -152.68  35.862
-55.992  -152.64  36.135
-55.789  -152.6  36.405
-55.583  -152.56  36.672
-55.373  -152.52  36.936
-55.159  -152.47  37.197
-54.943  -152.42  37.454
-54.723  -152.38  37.709
-54.499  -152.32  37.96
-54.273  -152.27  38.208
-54.043  -152.22  38.452
-53.81  -152.16  38.694
-53.574  -152.11  38.933
-53.335  -152.05  39.168
-53.092  -152  39.401
-52.846  -151.95  39.63
-52.596  -151.91  39.857
-52.343  -151.87  40.081
-52.086  -151.84  40.3
-51.825  -151.81  40.516
-51.562  -151.77  40.729
-51.295  -151.74  40.937
-51.026  -151.7  41.141
-50.754  -151.66  41.341
-50.479  -151.62  41.538
-50.203  -151.58  41.73
-49.924  -151.53  41.918
-49.643  -151.47  42.102
-49.36  -151.41  42.281
-49.076  -151.35  42.457
-48.79  -151.29  42.629
-48.504  -151.21  42.797
-48.216  -151.13  42.96
-47.928  -151.04  43.118
-47.64  -150.95  43.27
-47.352  -150.85  43.418
-47.064  -150.73  43.56
-46.777  -150.61  43.697
-46.491  -150.48  43.827
-46.209  -150.34  43.95
-45.929  -150.18  44.066
-45.655  -150.01  44.173
-45.388  -149.83  44.269
-45.132  -149.62  44.353
-44.883  -149.4  44.428
-44.642  -149.17  44.494
-44.408  -148.93  44.553
-44.179  -148.69  44.606
-43.955  -148.43  44.652
-43.737  -148.18  44.694
-43.523  -147.91  44.731
-43.311  -147.65  44.765
-43.104  -147.38  44.794
-42.9  -147.11  44.821
-42.699  -146.84  44.844
-42.501  -146.56  44.864
-42.306  -146.28  44.882
-42.113  -146.01  44.899
-41.921  -145.73  44.915
-41.731  -145.44  44.929
-41.541  -145.16  44.943
-41.35  -144.88  44.958
-41.159  -144.6  44.972
-40.967  -144.32  44.987
-40.774  -144.04  45.003
-40.58  -143.76  45.02
-40.383  -143.49  45.038
-40.182  -143.21  45.059
-39.977  -142.94  45.084
-39.767  -142.68  45.111
-39.55  -142.42  45.144
-39.324  -142.17  45.182
-39.086  -141.93  45.229
-38.837  -141.7  45.283
-38.581  -141.49  45.343
-38.319  -141.28  45.409
-38.054  -141.08  45.479
-37.786  -140.88  45.553
-37.517  -140.69  45.632
-37.246  -140.5  45.714
-36.976  -140.31  45.8
-36.706  -140.13  45.888
-36.437  -139.94  45.981
-36.168  -139.76  46.076
-35.9  -139.57  46.175
-35.633  -139.39  46.276
-35.368  -139.2  46.38
-35.105  -139.01  46.485
-34.844  -138.82  46.593
-34.587  -138.63  46.703
-34.334  -138.43  46.816
-34.085  -138.23  46.933
-33.842  -138.03  47.054
-33.604  -137.82  47.178
-33.371  -137.61  47.305
-33.146  -137.39  47.436
-32.929  -137.17  47.571
-32.722  -136.93  47.71
-32.526  -136.7  47.852
-32.344  -136.45  47.998
-32.18  -136.19  48.148
-32.041  -135.92  48.303
-31.929  -135.64  48.46
-31.837  -135.36  48.619
-31.764  -135.07  48.779
-31.706  -134.77  48.94
-31.662  -134.48  49.101
-31.628  -134.18  49.262
-31.602  -133.88  49.423
-31.585  -133.58  49.584
-31.577  -133.28  49.744
-31.574  -132.98  49.904
-31.576  -132.68  50.063
-31.581  -132.38  50.223
-31.588  -132.08  50.382
-31.597  -131.78  50.541
-31.606  -131.48  50.699
-31.615  -131.18  50.857
-31.623  -130.88  51.014
-31.63  -130.57  51.171
-31.635  -130.27  51.327
-31.635  -129.97  51.482
-31.628  -129.67  51.637
-31.614  -129.36  51.791
-31.588  -129.06  51.945
-31.547  -128.76  52.097
-31.493  -128.46  52.248
-31.428  -128.16  52.398
-31.356  -127.87  52.546
-31.277  -127.57  52.693
-31.191  -127.28  52.839
-31.1  -126.98  52.983
-31.004  -126.69  53.125
-30.904  -126.39  53.266
-30.799  -126.1  53.406
-30.691  -125.81  53.543
-30.579  -125.52  53.679
-30.464  -125.23  53.813
-30.345  -124.94  53.945
-30.225  -124.65  54.075
-30.105  -124.36  54.204
-29.983  -124.07  54.33
-29.858  -123.78  54.454
-29.731  -123.49  54.577
-29.602  -123.2  54.697
-29.469  -122.91  54.815
-29.333  -122.62  54.932
-29.193  -122.33  55.046
-29.051  -122.04  55.157
-28.905  -121.75  55.267
-28.755  -121.47  55.375
-28.601  -121.18  55.48
-28.442  -120.9  55.584
-28.279  -120.62  55.685
-28.108  -120.35  55.785
-27.931  -120.07  55.884
-27.75  -119.8  55.981
-27.565  -119.53  56.076
-27.378  -119.26  56.169
-27.189  -119  56.26
-26.998  -118.73  56.349
-26.806  -118.46  56.434
-26.613  -118.2  56.518
-26.42  -117.93  56.598
-26.228  -117.66  56.676
-26.036  -117.39  56.751
-25.845  -117.11  56.823
-25.655  -116.84  56.892
-25.466  -116.57  56.958
-25.278  -116.29  57.021
-25.092  -116.01  57.08
-24.908  -115.73  57.137
-24.726  -115.45  57.19
-24.546  -115.17  57.239
-24.37  -114.88  57.285
-24.198  -114.59  57.327
-24.031  -114.29  57.365
-23.868  -114  57.398
-23.71  -113.7  57.427
-23.558  -113.4  57.452
-23.411  -113.09  57.473
-23.27  -112.78  57.488
-23.137  -112.47  57.499
-23.012  -112.15  57.504
-22.897  -111.83  57.504
-22.791  -111.51  57.499
-22.697  -111.18  57.487
-22.617  -110.85  57.468
-22.553  -110.52  57.442
-22.507  -110.18  57.408
-22.476  -109.85  57.368
-22.457  -109.51  57.322
-22.451  -109.18  57.269
-22.455  -108.84  57.212
-22.47  -108.51  57.149
-22.495  -108.17  57.082
-22.528  -107.84  57.009
-22.57  -107.52  56.932
-22.62  -107.19  56.851
-22.678  -106.87  56.765
-22.744  -106.54  56.676
-22.817  -106.23  56.582
-22.898  -105.91  56.485
-22.984  -105.6  56.384
-23.076  -105.29  56.28
-23.173  -104.98  56.174
-23.275  -104.67  56.064
-23.382  -104.37  55.952
-23.495  -104.07  55.836
-23.613  -103.78  55.717
-23.736  -103.48  55.594
-23.864  -103.2  55.468
-23.998  -102.91  55.339
-24.137  -102.63  55.206
-24.28  -102.35  55.071
-24.429  -102.08  54.932
-24.582  -101.81  54.789
-24.74  -101.55  54.643
-24.901  -101.29  54.493
-25.067  -101.04  54.339
-25.237  -100.79  54.18
-25.411  -100.55  54.016
-25.59  -100.31  53.846
-25.773  -100.09  53.67
-25.96  -99.868  53.49
-26.151  -99.654  53.307
-26.345  -99.446  53.121
-26.543  -99.243  52.933
-26.743  -99.044  52.744
-26.946  -98.848  52.554
-27.152  -98.656  52.364
-27.361  -98.467  52.173
-27.571  -98.281  51.982
-27.785  -98.097  51.791
-28  -97.915  51.601
-28.219  -97.736  51.412
-28.439  -97.558  51.224
-28.661  -97.381  51.037
-28.885  -97.203  50.853
-29.109  -97.025  50.67
-29.335  -96.845  50.49
-29.561  -96.663  50.313
-29.787  -96.479  50.138
-30.013  -96.292  49.966
-30.239  -96.101  49.799
-30.464  -95.905  49.636
-30.686  -95.702  49.478
-30.906  -95.492  49.326
-31.121  -95.271  49.182
-31.329  -95.04  49.045
-31.534  -94.801  48.915
-31.735  -94.557  48.79
-31.934  -94.309  48.671
-32.131  -94.057  48.556
-32.327  -93.801  48.446
-32.521  -93.543  48.341
-32.714  -93.282  48.24
-32.907  -93.019  48.143
-33.1  -92.755  48.05
-33.293  -92.49  47.96
-33.485  -92.223  47.875
-33.678  -91.955  47.794
-33.871  -91.686  47.716
-34.064  -91.416  47.642
-34.258  -91.146  47.571
-34.453  -90.877  47.502
-34.65  -90.607  47.435
-34.848  -90.338  47.372
-35.047  -90.069  47.312
-35.248  -89.801  47.256
-35.45  -89.533  47.204
-35.655  -89.265  47.156
-35.861  -88.999  47.111
-36.069  -88.733  47.071
-36.279  -88.468  47.035
-36.491  -88.204  47.004
-36.706  -87.942  46.977
-36.924  -87.681  46.955
-37.144  -87.423  46.938
-37.369  -87.168  46.927
-37.597  -86.916  46.922
-37.829  -86.668  46.924
-38.068  -86.426  46.935
-38.31  -86.188  46.953
-38.556  -85.955  46.976
-38.805  -85.725  47.005
-39.057  -85.499  47.039
-39.311  -85.276  47.076
-39.568  -85.057  47.116
-39.826  -84.84  47.16
-40.086  -84.626  47.205
-40.348  -84.414  47.253
-40.611  -84.204  47.303
-40.876  -83.998  47.354
-41.142  -83.793  47.407
-41.41  -83.591  47.461
-41.68  -83.392  47.516
-41.951  -83.194  47.571
-42.224  -83  47.627
-42.499  -82.807  47.683
-42.775  -82.617  47.739
-43.052  -82.428  47.795
-43.33  -82.24  47.849
-43.61  -82.053  47.901
-43.89  -81.867  47.952
-44.171  -81.682  48.002
-44.453  -81.498  48.049
-44.736  -81.315  48.094
-45.019  -81.132  48.136
-45.302  -80.948  48.174
-45.586  -80.764  48.208
-45.869  -80.578  48.238
-46.151  -80.39  48.262
-46.432  -80.198  48.279
-46.709  -80.002  48.287
-46.982  -79.799  48.286
-47.252  -79.593  48.277
-47.521  -79.385  48.262
-47.789  -79.177  48.241
-48.056  -78.969  48.215
-48.324  -78.762  48.185
-48.593  -78.556  48.15
-48.863  -78.353  48.111
-49.134  -78.153  48.069
-49.408  -77.956  48.024
-49.684  -77.763  47.976
-49.961  -77.574  47.924
-50.241  -77.389  47.869
-50.523  -77.208  47.811
-50.808  -77.032  47.751
-51.095  -76.861  47.689
-51.385  -76.695  47.625
-51.677  -76.534  47.56
-51.973  -76.38  47.493
-52.272  -76.233  47.425
-52.574  -76.095  47.354
-52.881  -75.967  47.282
-53.191  -75.848  47.208
-53.504  -75.74  47.133
-53.82  -75.642  47.056
-54.139  -75.554  46.977
-54.461  -75.48  46.898
-54.786  -75.421  46.817
-55.114  -75.378  46.736
-55.443  -75.351  46.656
-55.773  -75.344  46.575
-56.103  -75.359  46.496
-56.432  -75.401  46.419
-56.755  -75.476  46.345
-57.071  -75.579  46.276
-57.379  -75.706  46.209
-57.68  -75.851  46.145
-57.973  -76.013  46.084
-58.257  -76.19  46.025
-58.533  -76.38  45.968
-58.803  -76.579  45.913
-59.065  -76.789  45.86
-59.321  -77.007  45.809
-59.57  -77.233  45.759
-59.812  -77.467  45.711
-60.049  -77.706  45.664
-60.281  -77.95  45.618
-60.51  -78.198  45.573
-60.735  -78.449  45.528
-60.957  -78.702  45.485
-61.176  -78.959  45.441
-61.392  -79.218  45.398
-61.606  -79.478  45.355
-61.819  -79.74  45.313
-62.029  -80.004  45.271
-62.238  -80.269  45.229
-62.447  -80.534  45.186
-62.657  -80.798  45.143
