51.8689 224.639 82.3728 117.824 97.232 169.622
33.8889 -244.874 -10.9832 133.103 69.0967 0.0939651
82.3053 163.412 -287.55 35.3108 160.098 107.667
39.6217 69.5099 295.511 98.3807 4.35565 164.496
9.33073 -178.099 144.136 18.3438 174.292 157.607
-59.5935 109.74 228.152 55.6755 40.8392 84.613
111.63 -123.397 252.491 111.652 167.669 142.939
63.733 39.1677 205.883 48.6644 30.6807 131.361
142.438 -29.1991 213.596 145.435 104.479 168.549
126.69 -98.0318 -241.549 106.525 1.64503 96.8105
198.718 168.246 110.619 90.3732 104.338 47.5397
-58.4235 -127.625 -312.197 77.5514 30.2283 0.623204
-17.9396 129.096 -30.2207 138.324 48.3066 111.616
197.017 -146.099 228.174 19.1208 88.2918 81.7061
214.501 130.01 95.3951 172.966 140.25 142.759
345.493 39.7458 25.1671 80.5522 42.2884 62.2174
112.173 -37.0759 -190.277 80.9917 153.624 49.8703
238.807 -242.54 135.36 51.5415 176.113 68.7489
-223.425 111.945 -47.0545 177.573 1.44086 167.901
-40.728 249.234 219.685 101.694 99.6823 173.055
-41.821 -192.231 11.4753 81.0795 158.056 69.9811
-68.7334 -138.382 267.295 24.1352 69.5987 10.1459
168.335 -58.5259 -24.3145 97.3457 7.31242 13.4814
215.268 16.3903 -153.708 34.9405 50.1495 139.089
-211.76 139.934 -22.6958 124.285 136.395 68.695
-153.845 151.843 190.89 65.3009 173.929 104.266
-12.7351 -74.0599 -183.267 28.9081 64.5261 31.6259
-55.8118 149.554 263.058 10.4081 101.246 97.6929
-64.7893 -343.56 -50.9933 3.22482 4.23968 91.5107
293.087 -61.6221 -115.339 83.132 102.569 83.5214
130.201 2.11622 325.865 40.3193 28.3424 65.8563
-205.37 -171.576 -129.417 66.0103 168.303 97.1586
-103.861 -177.356 237.686 169.288 114.822 79.6009
-203.902 -171.59 104.717 104.287 2.42949 71.5606
-169.064 114.184 244.436 25.4779 163.952 69.7667
33.7942 -214.719 -218.235 52.9252 161.238 77.8269
307.864 107.409 -28.8921 95.947 44.3323 122.558
217.685 278.191 -66.1161 25.2127 175.129 127.84
161.914 -212.206 -263.586 42.5924 124.028 118.28
141.165 -215.249 176.339 5.94066 80.1174 48.9307
152.351 -196.615 -136.752 174.88 161.05 128.969
-227.023 66.7116 171.329 66.7321 179.431 63.5422
359.359 16.7029 -136.5 51.925 155.488 127.194
-126.889 -115.192 -110.287 46.9861 21.1217 135.346
-123.93 -231.614 -127.868 160.693 168.896 128.48
-248.111 170.587 -210.583 152.441 118.784 135.222
-230.3 -121.082 187.539 116.773 118.92 100.488
46.3629 -52.1875 166.872 2.26935 118.399 112.474
45.937 -24.2592 101.73 159.083 64.4414 124.713
18.4599 255.57 245.021 140.821 92.6573 105.792
104.993 200.488 244.334 27.4312 131.743 175.05
188.215 309.793 -47.9944 166.092 47.8256 24.3432
85.7148 -94.0758 225.373 30.4324 168.613 161.712
-142.336 -311.515 -56.7216 120.008 86.6028 179.555
-146.499 -226.481 -201.112 50.3103 32.2124 51.1462
181.148 -155.454 26.2793 8.50722 123.753 4.78731
-231.807 61.8466 250.684 155.203 42.6771 156.954
151.076 187.934 -276.982 64.052 16.1548 55.0679
151.375 127.323 -92.2779 114.388 37.6109 89.6739
-284.509 -92.7623 -194.596 37.1387 25.5828 50.0811
174.232 -170.248 11.3576 135.185 76.921 128.819
-256.217 23.0741 -88.4662 68.1483 159.615 147.093
-72.6475 -128.474 185.371 76.7333 101.15 148.617
14.9363 198.387 1.98386 33.0498 168.095 39.148
-108.171 -178.94 -4.18411 70.5702 109.796 175.837
-123.285 -90.4795 224.989 168.216 104.327 53.6391
-273.911 201.816 3.29461 46.0892 13.9446 96.1635
-124.18 44.4972 174.092 54.4814 47.5107 82.999
125.307 -187.337 150.694 34.9614 8.57621 4.58735
100.075 35.2221 -221.201 45.0668 8.0756 20.3987
120.505 -192.415 160.497 90.7405 34.1331 108.186
60.1323 93.5748 135.965 49.8662 81.0403 42.9869
-204.316 -48.0306 234.76 99.4903 138.889 20.2566
-314.415 171.004 -53.3215 79.1569 142.308 69.0951
110.016 160.176 31.8841 47.1399 47.7094 12.6605
-114.443 35.4481 97.6026 137.407 162.843 27.9805
259.729 59.5245 -211.461 134.613 52.6477 113.774
-68.7053 -317.66 -29.2997 36.6727 94.8917 120.889
-143.552 79.7189 -11.874 53.1232 152.786 179.651
10.9416 31.0471 277.26 31.0854 112.927 2.36898
-55.7513 277.435 36.1862 134.998 105.71 117.126
-147.586 173.786 252.667 33.2109 160.726 173.598
-142.711 -50.8297 -62.2427 165.07 124.368 80.6686
-324.859 -43.2719 2.04538 177.55 175.08 109.257
-238.521 -32.5334 122.965 134.654 160.626 118.88
-83.2012 -33.0714 274.966 110.665 122.899 79.7238
215.287 -118.079 219.191 96.6222 150.003 126.333
101.349 78.4473 243.875 121.506 26.9075 57.3097
33.5218 183.245 26.5812 68.481 90.0949 82.0907
-40.5369 -17.6545 117.273 82.0457 6.60616 10.9326
-49.9128 -72.2536 -55.4031 58.8336 97.3167 100.485
-35.7739 -234.697 -276.298 144.796 53.9712 141.675
157.673 126.194 -75.8926 65.7036 82.7596 132.599
4.98599 145.687 257.614 140.194 128.977 13.3633
-202.575 -22.8478 -93.2477 23.4744 130.65 74.244
180.59 123.102 178.4 146.425 4.58889 49.9459
-97.1213 -265.112 -83.2426 130.054 170.941 21.0692
142.065 197.37 -155.076 144.845 146.69 131.18
-188.416 -141.29 -105.641 114.305 146.317 49.0984
79.8109 193.398 237.287 120.009 99.2023 146.561
250.745 -182.07 132.294 58.4207 153.209 12.7179
0.000290642 60.8359 61.6001 69.825 13.6459 141.185
167.883 128.801 -105.155 77.8475 87.5813 62.8397
-227.864 -245.904 61.1306 169.007 17.4046 136.737
0.451037 -137.364 -317.794 20.5263 129.311 95.4573
90.4308 -7.49108 163.944 43.1378 83.8247 78.068
80.5287 234.47 -260.891 34.411 53.5474 172.004
-167.996 -313.521 -16.0905 54.0675 60.3755 34.5455
-33.2032 -20.3523 267.229 71.1788 127.3 174.208
130.362 108.019 208.381 22.8393 32.2891 175.155
220.526 -25.4506 -298.015 90.1819 156.359 118.36
-63.86 212.258 87.9455 166.689 141.457 92.1299
20.7464 81.6199 -38.3991 116.678 149.052 6.01693
-116.297 220.413 -166.38 119.403 48.2117 174.107
-225.108 -229.665 -161.226 132.721 31.0065 123.404
42.7114 194.106 204.184 99.8253 77.7866 119.464
-56.919 302.799 -12.6817 149.891 169.157 44.9894
126.267 29.9875 -365.231 32.7425 109.785 29.6197
88.8862 185.51 261.925 146.194 67.8299 171.175
-206.984 -155.783 -3.93984 36.2139 93.822 110.606
-221.506 35.6681 112.3 59.3832 125.42 84.721
225.749 -206.895 156.171 108.378 134.794 72.4904
138.758 -100.717 -273.534 166.584 159.345 172.887
302.28 -116.953 -107.126 179.679 14.5963 32.8427
84.3134 260.087 137.604 26.1141 8.42949 140.908
-246.849 163.544 108.73 76.829 46.3091 72.1093
-50.6858 25.7328 -305.146 157.431 162.435 49.8593
115.805 80.7178 0.445808 7.52846 109.553 161.003
-1.59753 162.159 -269.12 156.036 1.38342 161.477
23.9566 2.85062 -115.252 66.664 33.6569 72.8169
131.911 253.577 101.16 60.9899 55.3262 140.781
-71.002 89.8372 -330.963 161.143 83.6628 158.66
291.201 102.929 -70.4477 160.368 145.341 2.11158
-95.4013 98.5052 -224.749 108.892 88.8978 158.465
115.946 -37.4589 -228.121 105.402 101.107 138.787
3.62034 111.125 292.954 125.277 52.6483 91.9105
179.192 177.701 -238.917 65.7661 63.1907 98.9911
-170.084 -231.305 113.854 177.809 82.5949 133.67
-63.8608 224.972 26.3124 152.032 160.604 4.02756
-76.3501 10.1973 -269.088 161.875 171.918 96.7091
-9.28643 -292.616 159.78 149.194 99.0245 57.2753
-270.278 134.521 -144.048 84.524 116.052 132.289
-204.838 -18.6332 -232.742 54.7454 108.448 126.889
-136.598 242.624 -135.694 168.667 110.792 104.751
-15.6011 -136.26 143.01 115.927 9.43334 39.6958
210.646 1.07043 -327.017 160.696 60.7209 5.05263
-49.1566 -3.16236 -336.761 14.4843 72.8966 36.6665
63.8848 239.268 163.955 61.8106 38.9567 66.8138
-75.3047 113.085 101.472 116.995 55.2444 90.1844
250.439 29.839 -21.4148 109.278 55.4814 0.0978363
-193.206 100.858 204.51 90.9865 101.611 27.3594
102.236 163.484 233.02 130.286 167.934 117.701
4.40919 -8.13004 -313.089 57.5353 23.6182 163.72
170.844 -43.9332 324.223 10.4241 68.4107 70.9269
53.5099 161.371 317.309 150.6 45.6158 31.3654
272.2 103.752 16.9625 49.6865 176.983 26.5641
-128.401 -44.3859 -289.547 70.7168 96.8356 6.22886
-120.699 -35.8255 -246.146 80.4119 145.2 83.7773
-31.4386 -262.249 275.517 60.416 87.2045 127.63
-64.5554 -256.119 -166.432 56.3044 166.482 135.368
-9.86239 4.42267 -161.374 50.413 154.917 43.5272
301.773 141.066 26.5759 90.6149 45.3214 144.304
48.8345 65.2285 158.345 113.131 91.1325 37.0185
10.0663 -120.496 -298.384 175.148 11.133 3.5218
-3.59931 -94.3775 -339.555 148.96 175.386 24.8741
-114.896 -113.11 -205.818 77.3713 173.791 82.7546
-71.1623 -87.1068 301.383 86.0549 165.397 162.237
14.3354 -44.2577 64.6502 179.491 113.847 100.119
38.2331 229.856 256.662 69.2817 50.144 23.3471
78.4442 -142.489 -261.276 93.6172 90.2799 120.809
94.7499 80.5451 -326.312 58.5223 173.512 83.2079
133.567 299.113 61.7004 172.841 88.1119 131.524
-124.144 -155.8 23.097 49.5682 165.142 126.736
52.1575 -355.29 123.197 31.5182 129.645 141.442
-137.219 315.467 -63.8837 55.969 111.432 179.19
94.2479 88.6657 166.328 141.777 2.76697 176.101
-370.559 -129.619 -127.237 115.873 10.8354 119.343
-170.965 26.6795 68.3902 116.885 149.922 57.1544
123.563 -258.214 3.42645 113.456 13.6709 117.717
64.4478 87.7233 141.104 78.2006 80.2662 165.001
167.863 -250.091 -135.105 154.685 156.896 172.511
79.0309 243.932 -93.5062 34.2188 2.61223 121.29
61.0964 -103.31 -55.4967 147.555 86.848 149.814
259.445 5.43824 -62.6935 75.3622 172.215 38.6528
-217.826 -37.6641 -124.829 59.7375 153.779 133.959
74.7919 327.444 59.0274 99.6302 85.6339 40.0853
65.3858 -275.226 -63.8212 46.323 32.6039 42.2715
-65.2681 -110.009 205.551 173.001 27.901 19.069
-150.445 -68.736 205.867 162.333 20.5869 51.9624
216.082 -1.06827 -81.2121 88.3964 19.4048 179.081
-190.26 -157.921 -190.246 127.205 43.4925 18.8298
130.835 -32.2983 52.3423 28.1535 146.742 35.8119
123.181 271.133 -76.8209 135.945 48.0742 87.1666
115.681 -200.383 229.321 104.383 53.3667 52.204
126.323 -100.254 -143.896 156.267 0.228748 146.479
120.82 -9.42257 17.8747 161.395 87.3859 14.2234
-87.3917 -233.311 -217.282 171.57 172.829 78.6327
260.982 81.1143 -161.088 115.503 150.39 120.277
73.407 133.057 -275.861 3.69358 140.288 100.347
186.034 -240.986 -128.978 27.5465 37.6058 127.12
-49.3964 -13.859 -125.759 167.477 49.5074 80.2056
67.4682 -323.285 15.4792 179.7 76.149 15.832
-32.8238 80.574 -185.956 116.994 80.8509 142.457
131.091 70.8195 132.446 178.631 54.9419 85.7318
25.4593 75.6133 -348.274 101.927 123.945 140.721
58.4471 -65.0412 -114.336 145.651 40.1475 67.5293
288.231 -85.6099 -6.84181 42.3094 75.0513 89.3199
-83.6804 274.255 122.51 159.807 130.21 78.1564
57.1213 -258.43 243.62 3.39481 178.611 2.87115
-40.8858 193.284 145.946 161.479 66.3192 52.5623
-217.276 -71.73 82.6489 26.7359 166.038 115.959
-229.559 -218.436 -43.8634 21.5751 2.0519 84.8655
39.0125 -312.341 137.327 131.836 122.288 41.5882
2.37553 18.7569 -66.9754 161.734 164.311 109.867
31.0513 26.6394 60.1236 174.084 118.163 6.29893
-16.8612 -73.9478 122.681 147.764 142.449 77.2186
93.0877 -315.299 133.45 169.51 74.909 53.839
-292.628 36.5885 192.34 12.7774 123.046 70.4766
286.032 -180.555 -81.7506 174.986 113.836 156.563
-23.3677 -254.976 221.832 84.2284 48.8209 125.296
6.40629 154.77 218.963 10.4519 61.4983 108.847
36.0932 -193.671 -43.5029 137.04 23.2852 175.128
-86.4258 257.134 108.28 84.7868 1.43119 153.311
204.968 -179.633 151.278 74.3206 80.433 139.019
-211.528 -77.4036 -98.1864 169.224 178.142 83.9345
-123.64 262.449 -74.9975 35.3163 21.8344 176.358
80.4601 84.7267 -35.6607 94.266 43.7356 45.0729
-198.654 -26.3061 267.431 173.261 97.3742 102.937
-231.359 206.751 -15.1088 126.703 97.5823 135.475
-193.716 -3.62628 -231.106 11.8103 32.4021 67.1048
316.787 2.80598 -4.2967 120.543 15.1265 99.9072
89.1176 -131.461 344.183 69.6042 0.316753 16.2645
130.152 65.1116 -131.857 135.054 22.7179 19.821
-219.196 100.913 -80.5142 22.8543 61.1891 169.389
-18.4029 -220.589 217.895 100.67 42.0035 23.7506
155.175 -130.002 287.812 40.8315 12.6738 11.4433
-91.3991 -142.794 189.52 130.007 83.7925 86.1234
258.758 31.246 103.672 155.761 39.78 131.023
260.336 186.127 38.6001 64.9338 87.0213 131.948
131.738 -203.888 130.881 94.57 91.3928 153.282
47.5724 234.771 101.661 129.591 86.893 69.4994
-85.9992 -145.618 -114.006 36.2563 55.9752 28.7741
308.03 -170.705 2.60629 78.6583 177.578 98.2164
135.01 -339.785 -69.6541 165.663 54.0733 110.186
335.985 88.4756 -26.1097 109.038 30.8501 35.1684
101.026 211.718 180.073 168.275 84.2747 112.642
59.595 -317.9 -7.58325 4.44634 40.2957 136.807
36.8032 -93.5571 -324.787 164.357 75.2159 157.358
204.839 -108.53 -229.66 129.057 109.238 68.2979
-16.393 81.9032 72.9675 2.24529 156.985 90.2487
131.213 112.299 -265.126 79.3548 94.8162 61.2055
5.57618 -30.7717 -122.08 2.48147 108.329 148.372
45.3924 263.534 101.093 133.444 131.848 131.551
-36.5444 230.584 -184.042 114.916 99.2364 45.8659
228.589 -232.788 -75.0836 6.4285 161.074 35.722
9.73884 -183.896 78.1306 161.113 151.613 154.795
-145.322 110.718 -225.04 113.676 162.383 8.23724
138.225 -78.7397 311.496 135.775 122.077 137.058
-265.808 -149.908 42.9945 97.5594 126.428 105.72
76.3723 -144.311 71.863 136.995 40.5366 128.258
170.25 -24.2507 320.662 10.7613 57.4255 69.4123
223.837 65.4999 -168.394 34.0285 17.5635 80.1932
222.309 114 238.647 54.2309 93.8217 109.587
154.967 24.4772 -242.6 40.7764 141.478 106.874
-181.923 -179.821 -99.0697 105.156 36.3316 65.1937
-114.747 -164.743 142.1 47.0684 133.963 28.2577
-211.882 202.897 29.4259 103.744 99.2807 19.8605
-73.9236 -27.5519 279.01 50.2813 157.656 138.545
188.521 -252.018 77.171 160.83 7.55709 90.4073
26.8873 -141.445 145.885 175.215 41.3385 128.671
-90.6915 50.7941 -301.783 27.8698 133.171 61.927
-162.434 48.0955 -186.959 28.5207 146.468 7.22509
-60.2538 151.596 -298.716 29.0898 99.0502 35.7877
200.289 -103.704 49.0988 170.499 179.502 135.844
94.4214 192.689 -163.474 41.0537 66.1545 85.3737
88.9514 -245.26 147.481 15.6839 19.9954 107.565
145.029 243.124 96.6011 56.5151 93.4231 7.8734
117.927 -86.837 -188.004 170.268 35.4467 151.087
6.51293 -44.9995 7.91167 151.346 175.595 96.2862
80.5369 -271.125 -115.86 111.727 67.3851 26.1733
-117.055 -77.0988 288.268 108.618 12.0803 72.032
181.675 -67.3284 -69.3636 86.5194 31.8707 86.8582
-0.707232 -215.382 -262.394 98.6122 80.9891 37.6565
-129.25 -169.479 -48.8551 122.484 86.8229 30.1775
15.6623 -18.5745 138.838 59.49 9.86523 105.877
175.397 -102.197 148.227 129.446 52.3128 36.7361
-89.504 -121.835 -10.058 77.391 118.219 100.495
46.1803 382.688 -14.6793 168.053 54.6799 154.871
179.571 9.35315 263.146 10.5565 150.923 55.4708
-138.233 -241.068 98.6455 54.1123 144.078 117.135
177.036 33.6006 286.943 18.3378 174.031 156.456
-221.973 95.5149 -119.752 114.265 2.38539 86.6916
-294.616 52.5262 -30.3834 107.631 169.738 49.3747
-233.674 -204.198 54.2822 135.193 82.2686 124.75
20.4901 -92.2794 41.145 142.067 38.0707 13.378
304.955 -144.023 -29.9056 165.352 71.6013 40.1308
113.149 220.153 8.87125 40.6316 36.9834 73.1301
-173.568 -116.708 26.3874 172.207 155.191 148.582
192.578 107.205 79.7885 28.4172 174.866 173.731
-9.38797 -123.242 234.853 148.269 139.231 41.7762
85.682 220.945 -144.219 65.8198 37.4174 77.366
88.6 -128.03 -175.802 150.338 106.29 16.0284
179.039 193.346 152.15 134.41 155.514 23.0627
311.902 -18.5096 78.2521 158.712 115.623 178.828
-319.17 -89.3927 -19.5045 56.705 121.572 6.1303
116.757 84.4536 -202.94 48.8143 172.286 71.33
-66.5708 8.93298 381.421 121.201 68.8573 10.6502
218.783 -215.438 -100.803 52.6293 108.324 15.9189
-162.264 -139.843 248.067 86.9912 5.16498 122.896
-198.405 -200.507 -109.282 153.909 2.28063 78.3674
-34.6802 120.974 293.224 47.9476 158.219 88.8369
-50.1376 288.482 -238.749 0.307312 88.6083 36.2145
251.955 24.088 -248.886 115.521 11.5911 30.8046
-301.032 -53.2979 60.0903 85.2647 65.6312 40.0013
-392.742 56.0806 61.7797 57.4916 169.268 99.6062
154.554 5.38723 -290.696 122.321 160.41 51.6862
15.6068 17.6207 -122.03 8.71352 172.398 143.677
-184.31 72.4101 -202.095 92.6288 69.6423 51.1053
121.915 263.795 223.026 120.662 166.28 33.4349
221.558 162.768 -211.811 102.451 25.0673 31.5533
-218.27 -190.488 -72.5708 94.2457 18.2427 30.2339
-70.0247 -116.065 134.953 133.458 17.2567 129.139
-5.57516 29.1569 -4.19771 124.428 67.9261 67.151
-99.3477 -166.024 -22.2247 141.362 146.343 145.873
125.641 -31.671 -97.3012 68.8325 170.824 140.178
30.5948 45.6586 -287.678 32.7914 91.6607 111.405
-82.9129 -182.896 257.203 106.389 124.457 46.7207
257.808 -109.633 -87.3672 24.0381 50.7814 68.832
-139.61 -175.623 -131.933 35.6123 177.742 72.2896
-111.794 195.629 198.122 163.236 86.2017 44.1809
16.6016 117.42 -307.027 108.338 127.301 22.7469
-58.4827 -254.052 -65.6033 74.2825 56.6031 163.421
-129.815 81.6189 98.9519 102.014 54.4102 123.8
-5.0619 192.17 43.7954 171.238 66.3061 152.61
4.88737 -106.789 12.1748 69.3266 92.8779 10.0987
-41.9046 -57.5982 327.799 62.5962 136.931 125.403
-82.9606 -20.4344 -3.23326 105.766 80.6676 59.0719
-184.82 280.978 58.6254 123.804 157.864 23.6407
289.406 59.8473 -51.4641 174.246 122.155 15.9162
206.487 61.4296 -184.478 170.682 103.24 72.8052
-191.82 318.474 51.0274 94.9026 116.369 82.3937
-91.8035 17.7835 92.5567 125.789 169.245 17.284
219.957 -197.73 -236.084 161.868 45.1298 38.442
188.786 91.4448 246.192 38.4605 100.87 117.05
106.117 -219.841 20.0548 19.5954 4.75968 95.4263
-133.297 -298.383 -14.8679 77.9986 12.0144 53.9672
124.561 24.2696 183.044 63.4157 80.4559 93.1327
120.337 54.0848 143.361 49.7639 94.5475 84.06
-209.187 81.7563 108.112 167.524 97.477 46.7238
-41.5198 312.441 36.2487 179.352 84.8614 67.0956
43.3337 -122.552 -261.23 158.577 81.7216 60.4155
-85.8423 -76.0257 -23.3669 89.1697 91.1688 6.81031
282.435 23.0903 -178.302 164.981 59.9437 105.993
-63.8898 9.32171 264.324 89.1863 115.885 70.9642
240.087 -77.369 105.589 104.691 5.87989 107.015
-26.9797 -109.916 -0.982493 85.1183 131.085 92.854
106.853 51.4512 29.1849 147.181 11.3286 161.71
107.333 -27.531 -200.954 128.341 43.9555 165.801
-218.328 242.222 17.165 84.6688 103.435 133.07
238.077 45.5077 -56.8321 96.8594 168.982 45.2245
10.8247 118.988 177.84 105.988 126.569 96.4677
162.398 -132.995 -127.984 77.0874 11.8039 60.2275
144.92 -51.8426 33.3562 103.901 179.18 114.101
-41.3167 -271.829 -130.092 160.611 39.0285 64.7605
-220.467 -89.9955 -257.863 164.398 99.2677 87.7453
-232.617 76.0787 -251.937 123.296 130.688 85.221
86.5047 184.034 300.905 25.1594 96.6572 80.1654
95.5355 -1.69537 -140.739 144.519 118.213 138.533
117.051 -130.972 51.5679 57.8997 68.7501 36.9103
-259.449 48.6748 263.521 157.9 31.9806 68.1642
112.83 -130.955 155.717 177.932 88.17 65.3974
-189.176 -122.899 304.115 140.012 72.5897 54.7977
-197.875 -171.57 -120.463 75.6621 116.864 177.043
-201.662 20.5126 -109.984 24.48 179.252 115.786
203.689 -293.516 -24.7294 95.4646 120.888 95.8797
-124.177 105.551 163.446 127.299 38.3018 87.6835
-146.212 -95.3331 114.88 26.0673 24.2757 105.103
-193.69 189.708 -312.123 30.5576 34.6409 141.717
93.4962 186.869 -196.597 95.7442 73.0438 148.066
-286.456 63.9275 67.1062 155.277 40.6383 88.0732
-28.476 -271.46 -15.0891 9.07054 109.854 165.611
-23.0893 -156.567 22.6936 93.9933 158.519 119.148
49.5004 -282.575 -4.74204 49.0432 160.315 24.0541
-125.522 -103.327 160.559 53.2036 27.1565 147.63
-243.478 -239.24 121.772 66.0984 50.6134 120.588
41.41 98.7725 42.6799 85.6141 112.13 74.1587
-7.28469 71.145 171.983 123.568 162.547 59.1006
-10.6325 331.469 149.217 167.507 104.444 44.6769
-270.98 -3.06364 126.783 18.3538 85.9404 64.4256
154.156 -69.2925 -320.032 114.178 126.261 8.40332
-62.4006 30.6398 -9.6264 136.188 26.8051 79.0873
-240.402 -21.1626 61.1344 150.675 173.159 45.2557
272.157 -207.534 -90.4106 44.9769 131.705 67.8476
287.201 58.6755 -66.4972 22.5681 23.8498 62.031
110.476 312.39 164.116 139.595 119.394 170.221
-11.4238 135.547 294.695 37.8938 12.6646 25.5125
-200.259 132.007 53.5924 104.267 70.8031 88.879
-77.8225 -237.835 12.7061 28.1312 99.3529 152.114
-102.532 164.008 -275.493 146.287 141.213 4.86905
-98.9228 -179.559 -179.558 38.0568 152.073 2.50024
189.788 121.895 -5.39749 1.66181 9.29203 11.3466
-208.355 3.74426 -198.494 4.00116 43.3077 39.4426
191.421 244.35 -6.34576 51.9064 177.411 169.158
-95.8513 -61.2958 343.767 93.3229 76.2776 145.651
142.323 295.046 75.7681 67.0357 128.158 166.705
208.714 -218.042 -41.024 33.5653 90.4947 127.882
-48.8581 -167.406 341.071 21.3619 81.1922 142.571
-36.0449 -86.8333 18.7852 134.261 150.418 60.5837
126.97 -82.6874 -226.302 98.9076 90.1468 62.8814
-83.1077 149.796 -185.856 124.499 60.8329 76.9216
303.738 14.4181 -193.566 121.092 26.0531 53.5873
-35.74 -276.321 97.191 54.4667 160.893 21.4297
179.744 -295.37 -33.5702 11.1875 135.266 160.179
-34.6542 314.205 75.385 172.571 154.386 1.8145
-69.01 -170.593 97.5064 31.3869 95.1938 166.176
-129.711 -26.4178 172.711 22.4638 12.371 56.8778
-250.191 159.715 45.1268 3.03938 130.853 99.9577
-255.935 207.755 -151.871 127.588 138.492 124.963
-216.233 268.112 70.4964 134.618 113.06 156.109
182.735 160.475 128.771 178.607 88.1547 116.352
-262.334 -66.6939 8.53536 25.1056 6.54167 42.2923
-86.7869 -199.128 188.893 125.711 4.26473 96.1526
-195.177 -142.168 130.734 11.5195 179.072 95.5142
279.662 -15.6743 -194.266 153.789 46.2063 111.884
109.94 241.783 86.734 34.0805 159.644 69.8344
2.82252 55.3543 -260.137 98.4708 92.9597 118.827
-214.371 213.658 -213.342 24.0662 52.6665 41.5681
-32.8967 -190.883 110.879 58.0446 133.543 100.586
96.9913 41.3238 -110.817 171.142 144.103 29.1557
172.981 -169.468 -41.655 84.5688 12.1799 117.927
-216.183 -49.7383 -222.248 6.784 57.1595 55.5965
-9.56333 93.8712 160.909 52.77 149.259 118.187
-134.182 -38.4553 -21.0759 83.4969 129.687 81.6793
-126.765 0.488386 281.566 97.8457 71.6602 73.3867
17.6803 57.3873 242.814 94.8267 122.107 114.956
240.839 23.4417 -233.357 31.6919 134.789 102.409
34.7056 192.221 -27.149 162.742 118.223 29.6063
-299.241 -134.478 65.7924 108.773 65.3908 21.6123
270.394 34.3616 41.8665 13.0049 14.6801 138.854
-260.483 -164.694 4.99032 174.068 143.87 109.293
179.496 101.52 -75.6989 150.405 88.0244 16.529
-49.7597 201.207 -88.9126 62.5435 47.9759 96.2884
171.14 -212.124 -171.319 130.246 10.723 86.8201
-298.749 37.8206 -29.9013 146.783 75.7892 15.1487
135.993 -36.621 -121.734 63.9504 151.589 18.0857
112.826 86.8502 174.019 177.436 26.54 153.605
-115.079 -2.42036 95.5038 49.6435 30.8293 137.452
193.464 -0.686165 232.042 24.2669 136.27 145.491
-78.1418 105.598 280.936 32.9863 54.5557 149.826
153.151 -35.4832 -192.625 139.781 64.659 175.672
103.564 231.945 -218.536 121.673 133.832 45.3275
151.943 -90.8523 -100.879 2.56692 24.8343 165.169
-56.5963 144.943 -277.367 161.612 134.633 102.332
-16.851 -174.767 167.863 92.6494 73.0525 164.536
167.526 -28.1692 181.279 16.8803 138.642 98.3048
60.2892 141.927 -23.5134 136.939 141.895 6.47799
-164.603 6.58887 275.306 83.1558 30.771 125.673
182.581 125.548 286.694 155.369 138.06 34.3784
311.193 -40.6773 118.344 11.5359 86.7938 108.951
-191.853 -268.174 -51.2279 73.8033 42.9963 48.8678
-38.3008 49.3364 233.816 110.779 57.6271 47.6524
110.291 344.425 12.0012 152.707 62.1899 13.6285
-3.47631 93.6757 -201.485 2.34871 140.12 69.7526
103.137 -129.603 266.812 119.74 29.7803 72.529
-44.4378 63.7196 -163.349 78.714 33.0033 80.8054
-132.541 -187.653 206.682 32.1562 119.075 159.68
143.344 241.318 -27.5648 76.6072 103.797 79.0699
-28.4532 177.682 -231.224 97.478 75.7947 173.375
68.6658 -9.14703 320.129 7.26322 85.6328 89.5461
-217.04 -192.598 99.6335 162.64 65.9771 66.5138
-9.13027 145.41 69.6527 91.4074 33.1604 148.04
247.964 -22.437 -26.7325 38.3039 20.3937 96.5106
56.8885 100.376 -286.567 134.466 135.114 68.5552
187.99 214.59 -23.7126 6.26765 6.85161 38.4011
65.4364 139.695 -161.438 105.089 116.445 118.362
-2.31056 24.9401 -140.785 7.12092 176.532 107.134
-90.7236 234.371 248.417 152.328 174.641 60.7461
-204.652 16.61 -8.75001 14.7544 85.7039 178.433
-238.338 -2.95136 174.432 129.492 176.556 133.458
-212.228 -199.913 -10.9263 177.691 87.1167 22.9984
-278.928 189.647 -33.668 126.948 179.656 30.1457
-182.251 175.394 -59.2357 126.45 106.082 7.96277
103.718 -361.061 -89.9333 176.162 53.4679 94.0105
172.632 -262.542 -1.10307 28.4698 157.424 159.031
-240.264 -126.633 -17.0841 97.5619 179.933 15.3524
-225.482 -15.0347 -201.332 80.4437 154.455 164.584
-148.088 -288.423 31.1328 69.049 101.593 38.9237
110.044 255.786 129.954 53.1539 30.3533 64.5074
-3.75585 102.155 -24.0261 73.4204 172.231 11.0267
-54.8127 -94.0099 -186.352 131.021 55.2771 26.4961
212.636 -146.572 203.203 88.0311 55.4779 175.952
191.775 20.5225 -55.2971 165.014 88.7124 159.296
-136.905 -10.4332 -63.1041 147.637 179.967 129.79
-85.9808 293.971 -22.6992 144.436 97.2985 79.2101
225.536 98.7543 187.669 142.934 172.565 74.6991
-28.9894 -176.631 217.633 10.55 77.2532 14.3676
47.1906 -100.721 -112.807 56.5667 108.169 76.2409
-334.558 28.913 43.0108 137.438 127.406 82.7131
274.278 -38.7048 125.647 168.321 132.12 90.5542
193.559 224.137 156.732 36.0061 71.9211 117.985
-21.5387 -18.9283 320.524 95.88 142.279 50.1912
129.423 -43.9389 -254.872 140.489 14.6747 82.4364
144.485 -166.544 -236.218 15.6199 34.4785 58.0133
-124.854 -70.9353 -151.474 148.826 6.66166 148.359
-66.8113 -235.737 -164.921 49.4901 78.0021 37.0091
-67.3521 25.5212 -159.435 146.381 113.417 46.8313
58.7202 35.1576 235.668 157.074 77.8252 175.89
83.1068 -277.265 70.6701 55.1788 15.206 170.7
-196.739 -111.107 183.979 169.983 127.021 102.398
-127.906 32.9691 30.9529 109.949 29.6131 142.544
-247.385 -72.0214 38.6028 178.599 78.5829 83.8982
168.542 51.5462 -68.2481 38.5543 90.646 96.9989
128.276 353.418 -15.6514 142.607 42.6465 143.548
14.6058 0.647248 302.469 120.143 119.05 30.9988
34.3995 -219.654 170.769 59.2691 170.108 6.92046
141.307 241.442 -86.4885 25.6205 45.6673 89.4049
-10.596 -192.621 253.151 138.319 82.7386 129.704
-104.543 237.884 186.211 46.6756 165.213 41.0189
-114.163 246.703 -71.6838 16.9371 47.666 120.424
-196.291 -63.8242 165.157 73.9133 58.5012 158.198
37.3471 -92.2005 -272.866 74.6999 140.789 44.6493
-38.9809 51.0941 42.787 66.1892 126.351 40.0803
-59.8283 37.162 126.736 37.5126 142.826 35.8734
-45.6583 -163.873 170.762 129.5 43.4579 48.58
13.4517 247.665 133.175 122.136 21.6782 155.176
-78.2577 344.805 18.7482 175.154 113.669 174.542
227.882 -99.6625 -217.185 124.841 98.4252 12.8443
35.9028 18.2594 23.1122 95.7467 58.1545 74.0646
-227.85 -226.495 -41.2912 140.212 69.2461 147.671
6.63113 -66.282 -51.5652 52.3199 155.794 44.8041
-146.619 -268.018 -197.976 119.073 57.8418 151.748
-24.4725 -144.012 32.3046 19.6622 0.682411 45.5446
51.22 295.664 -99.6467 46.202 59.3839 138.796
75.2634 -259.075 232.337 64.7557 154.316 149.559
206.813 260.174 101.751 80.1758 46.8413 116.656
120.506 -69.1682 126.041 81.91 72.8281 61.8533
258.021 -158.617 163.002 137.965 59.0108 101.373
278.591 19.0686 160.724 92.6488 172.749 131.816
200.527 60.5741 -54.4706 159.874 117.414 77.4736
25.9914 74.5454 -276.403 102.757 128.459 25.9974
162.039 88.9474 -281.67 179.99 132.185 108.919
-75.4663 123.266 -314.497 113.311 67.3601 141.755
126.094 -85.0729 187.222 74.4242 146.922 41.5503
41.1192 -204.465 128.551 104.663 40.0539 97.5832
97.7994 -307.726 3.67652 69.7863 164.637 142.595
307.448 193.316 -70.7138 151.427 42.5118 108.217
161.214 84.2579 107.426 1.75126 155.638 75.8493
0.964955 294.472 -113.476 18.6056 10.0158 151.059
-165.791 134.601 278.94 139.193 16.7558 137.611
311.09 -32.4134 -100.875 119.167 93.9268 37.1992
31.7418 369.547 11.5986 28.7151 72.8374 109.085
-33.9586 17.48 164.092 41.3954 23.3616 84.9697
10.0759 3.79208 -275.308 48.9772 18.3961 47.4431
35.5602 307.5 -121.383 45.6361 137.019 1.10033
-61.0289 -189.861 16.3857 9.15262 147.896 1.46064
-168.752 56.3451 -223.478 55.7638 61.9135 172.227
327.843 77.4465 32.6023 59.6633 179.915 11.2745
171.665 -33.2663 -156.117 134.668 116.286 165.146
263.486 15.269 -153.321 68.5973 135.473 92.425
142.085 239.387 112.782 44.1245 116 23.1388
-42.4104 154.966 -134.776 169.876 33.1467 22.6408
21.0329 -139.469 248.164 69.0962 59.2622 33.1152
76.6619 -213.165 215.032 49.2968 97.022 124.635
-80.7561 7.17136 285.105 53.184 120.027 100.282
175.402 108.515 -52.9499 4.15214 112.599 18.3167
-325.967 -39.9607 -132.76 65.7244 39.9131 20.671
-91.217 -12.6164 -21.6438 81.7179 114.974 60.3551
-21.8026 142.822 2.38239 151.482 134.306 92.7161
33.6578 218.342 218.431 30.3574 87.4009 38.2883
-15.8157 -131.529 -16.4157 121.613 172.228 144.52
-126.588 -188.557 139.45 70.6661 62.9557 118.433
-206.019 -128.565 -35.3351 88.797 147.866 57.7376
-69.441 89.8024 62.7547 34.7253 146.396 10.1522
145.739 155.155 -179.669 28.4842 94.7733 138.783
-111.282 -266.428 38.9144 150.983 5.51112 98.7315
-192.642 -218.052 25.2858 141.842 159.039 92.5987
-103.764 160.051 183.559 27.8626 114.845 41.4385
-347.826 6.08402 -11.0432 97.1607 172.059 172.81
75.5283 -13.458 154.058 61.5936 120.503 18.4069
-103.226 -146.612 137.499 55.9633 54.5973 76.2925
-177.85 -207.25 101.262 151.032 173.508 13.6611
194.587 74.5531 268.172 153.257 122.521 139.332
-123.805 118.193 119.384 46.5077 106.948 177.753
-220.028 100.756 -7.10102 15.115 89.987 30.9857
60.9834 91.8538 -371.071 125.962 68.6658 35.9616
23.909 120.334 -292.042 78.1261 73.6301 22.8238
-181.791 -209.606 21.0753 131.172 139.274 146.576
97.7217 346.868 126.187 23.6554 80.6376 28.8258
-52.1246 123.305 245.596 111.236 99.1345 41.5836
-254.55 -189.719 -59.0261 79.4939 82.3033 119.388
-43.3842 -151.145 -256.824 141.129 135.345 7.71104
17.8444 298 -20.0588 163.367 86.5768 35.4151
-135.213 -56.9102 85.71 81.2822 148.507 147.764
-98.428 -289.142 -106.443 168.261 81.5162 45.0289
-299.85 71.2754 -48.6296 41.8858 146.688 11.9744
301.753 -42.599 -114.39 26.9219 100.231 73.7121
88.4821 -93.8234 71.892 95.6659 79.7165 149.407
192.528 -266.237 154.822 26.3781 168.887 100.905
-28.7604 -50.9928 217.722 48.8877 110.06 45.4587
-91.8826 161.331 129.667 93.3822 160.953 176.636
-331.224 5.26214 -128.938 127.952 177.715 37.929
-244.453 -179.194 136.788 61.3272 139.439 11.6395
-187.651 -83.7916 279.057 139.724 91.2462 69.4816
278.145 123.288 -2.96137 13.484 73.3422 39.7683
-176.954 65.942 -59.932 113.407 150.599 97.3993
257.383 -107.4 127.701 36.813 132.589 179.289
-222.704 22.3878 257.571 120.957 137.415 42.2304
223.639 127.393 -121.749 35.108 26.1928 8.20165
-11.5287 -276.863 -194.7 22.6546 164.934 37.7239
-59.0989 -282.025 113.416 127.958 152.32 158.683
-193.659 -45.9859 96.3969 129.677 14.0597 146.104
-183.311 -118.12 -57.1589 150.214 79.5951 175.881
-8.13213 266.048 -119.713 106.097 42.2813 82.4981
34.0526 224.575 155.1 131.646 100.051 151.017
-10.331 171.942 -117.35 138.212 170.427 2.02583
-22.6556 -29.4119 -366.227 103.746 26.0043 110.388
78.8594 -367.334 31.9462 46.4229 106.761 122.633
67.4686 -310.318 -3.21458 58.7388 59.3226 139.618
-26.2798 -163.786 70.0203 84.7779 47.592 106.578
2.19985 284.927 -210.254 172.178 98.6577 162.491
5.3276 141.957 -337.828 5.21946 69.6999 113.906
329.06 70.7726 -31.4931 15.7418 66.9468 74.5908
-158.257 283.962 -138.628 8.40238 10.2159 124.639
246.509 35.3015 114.882 7.68465 173.602 28.6334
-202.441 14.566 -119.133 9.48592 61.002 127.06
23.3404 81.5456 -192.883 135.404 46.4406 169.386
67.3588 255.525 100.427 106.134 75.5438 13.7234
-164.43 -182.492 -76.3081 86.8114 72.6527 129.675
223.606 121.633 18.8266 7.61143 111.123 118.371
-103.434 -201.485 -278.365 107.954 24.4545 155.67
-52.1183 -207.761 143.613 88.1699 70.3985 78.2403
-259.32 -86.4299 118.693 123.356 173.042 63.7482
97.4861 253.603 44.9342 91.8611 169.135 33.1862
-47.7835 194.793 333.338 11.2156 100.284 111.256
-142.702 -201.357 12.7087 156.809 163.694 80.7306
229.592 -237.367 9.18229 91.4117 34.7021 65.1615
-156.443 40.9913 119.546 128.485 8.93008 104.439
179.789 83.4045 -130.979 103.49 20.3066 77.333
155.194 24.9027 190.86 151.171 32.5319 112.735
156.476 -160.819 -33.7525 38.6815 23.5068 160.362
-227.7 -203.65 149.961 26.6513 4.7322 149.25
-52.0056 51.7885 107.712 42.5123 107.978 126.562
97.6024 30.9055 304.343 7.02422 108.41 122.954
172.133 61.5815 54.4943 77.0087 0.305304 16.2406
173.54 152.091 104.904 112.367 83.9567 70.5035
191.291 -239.998 152.51 5.78989 75.7875 164.267
237.086 84.5651 -232.503 71.8769 147.327 64.705
267.167 159.129 -159.216 117.099 75.5191 160.971
-163.342 83.0653 341.344 103.309 145.557 163.094
47.4366 -121.947 186.861 47.8516 7.41837 109.241
-315.066 39.1461 143.11 46.21 9.16058 109.014
214.02 17.2528 -62.8857 42.2898 40.9231 32.7662
-239.238 -9.70981 -172.474 125.199 21.8947 115.314
-155.677 202.975 -101.156 52.6491 111.35 153.209
136.368 17.323 -59.8395 7.23073 130.142 135.612
17.8972 232.844 -60.289 86.5443 68.9804 112.947
318.321 12.3342 118.732 28.1298 14.8012 120.853
-179.043 59.8535 -52.4863 80.9589 83.2311 142.089
-67.6498 262.738 103.728 124.08 30.8905 142.898
29.2392 -25.8593 124.715 106.835 150.37 88.958
-189.048 41.3703 -253.923 161.646 39.9255 153.359
357.42 65.756 -119.621 29.9685 157.496 89.1982
-296.445 -99.9528 -63.2955 12.0725 40.6031 84.0088
-184.351 143.028 241.456 135.031 134.074 112.457
310.339 -62.837 78.2585 114.637 1.86809 9.54855
-55.827 -25.9192 -343.865 68.821 130.739 63.3182
-136.218 -312.546 -114.963 138.987 33.7738 51.686
224.578 61.1897 -86.9932 31.6795 169.209 57.4519
213.888 -185.043 -64.0375 61.4332 149.606 121.129
198.222 -107.812 68.1975 159.153 41.2527 137.637
157.967 -155.032 53.8526 21.0268 1.88016 139.922
117.961 -13.2271 113.375 60.6208 83.9354 61.2149
64.1454 -115.214 -89.8308 67.4172 148.08 14.3038
-146.014 187.53 -217.859 157.58 169.098 40.9232
58.5282 -115.898 285.978 157.71 11.0282 79.8924
56.1168 -162.938 85.9017 135.799 27.2342 112.349
60.3816 -38.4575 -269.48 92.8581 124.128 41.9428
-261.892 115.119 -22.9721 69.8746 138.464 165.195
6.70807 138.498 219.904 119.79 5.85406 72.2287
86.6453 -24.848 -274.36 45.8449 164.242 157.652
99.3438 97.5422 146.157 145.512 131.245 89.9746
-15.3796 -33.4011 -294.933 102.992 149.79 37.2055
136.567 -104.1 102.422 113.764 151.021 28.3882
-67.446 -159.931 195.862 131.351 177.895 45.7979
126.191 -120.555 214.343 148.28 140.216 117.927
56.5279 84.5126 -293.339 112.764 174.87 67.4027
0.533777 2.75863 -316.405 111.324 93.7247 26.5968
-146.438 -130.251 100.164 109.974 158.319 116.208
335.647 -5.68673 -61.8833 36.827 91.0424 153.353
113.392 91.3516 -258.978 34.7327 110.166 9.23852
138.491 31.0069 24.4626 4.99399 96.349 112.946
-139.565 -113.753 -27.0138 14.2035 130.42 95.6434
200.452 -172.398 -127.115 131.699 121.37 91.313
-113.318 -107.866 -151.564 69.0183 135.271 166.771
71.8832 -195.045 -109.277 10.9111 0.610943 16.8502
-328.561 90.7844 -20.103 5.31383 142.543 112.48
125.51 117.719 192.546 173.611 94.9922 151.342
182.699 -85.2612 -155.55 118.427 63.188 58.8334
-103.902 94.1674 -39.9488 71.5334 121.802 136.053
-200.979 -35.9224 63.8311 63.7902 70.6382 92.4334
224.844 150.149 -83.5925 172.419 64.5133 89.6774
83.227 -329.951 71.1217 39.3962 143.255 150.538
33.7795 -36.8451 -76.8243 116.716 15.0493 176.611
140.059 57.0566 -19.1079 171.147 109.273 173.863
-60.0922 149.055 -203.849 166.855 140.167 123.091
25.6736 268.008 61.8888 102.311 117.175 27.8468
255.331 126.604 160.076 40.2475 117.617 55.1247
165.962 70.9447 2.88664 159.414 76.2903 176.163
289.603 86.4068 -94.8027 136.123 18.099 169.676
129.234 -304.799 42.5735 118.426 152.934 132.326
75.0881 -72.9327 -141.988 139.847 39.3333 4.06238
19.1772 51.749 -287.351 62.3892 11.9077 86.8025
163.822 -202.724 -188.131 17.8719 103.007 58.5046
-28.9727 300.741 32.2502 110.654 3.16534 168.337
206.153 283.779 -50.5243 30.4031 57.1881 154.42
-184.17 20.0594 51.7824 21.9072 175.437 44.5732
66.6344 39.0317 -15.7664 19.916 84.3071 58.6742
-133.969 -95.4888 -216.067 132.364 78.6601 179.741
-274.132 -98.3334 52.1698 48.5342 37.9475 40.208
-11.8098 -251.729 -197.307 98.4097 0.997553 167.68
99.4387 -182.538 179.253 108.668 91.5668 3.94416
-187.45 274.507 -84.5446 110.608 33.032 146.547
63.21 177.835 346.39 84.5838 78.2552 144.524
-133.03 22.8308 -161.33 100.347 157.089 60.7928
-48.016 -83.4189 -3.17126 30.3068 50.3627 78.6097
230.512 -131.19 -69.955 138.696 80.2936 153.691
-59.0509 84.9453 -103.512 45.9585 40.7246 56.2607
-165.082 -87.9186 -233.97 127.857 141.933 40.481
-109.68 33.5394 -74.5165 53.8005 136.821 89.994
-114.81 111.794 246.778 16.2986 126.12 139.963
27.0984 -224.557 129.821 140.422 21.0086 74.1985
22.0932 181.699 10.9809 50.127 26.9467 11.8354
242.107 236.208 133.539 66.6362 50.9332 117.521
-239.049 -1.05208 164.069 125.339 146.65 104.788
-82.0756 44.5389 272.333 98.3278 39.9325 174.909
21.3294 -277.586 237.493 21.6565 29.775 21.9375
-12.3515 -185.176 193.448 18.2901 27.8576 108.053
39.3911 144.957 320.856 93.9154 163.154 58.883
-282.482 4.63471 153.528 141.992 13.5213 72.3253
-11.9915 -220.73 227.196 170.965 21.659 131.459
-301.44 124.265 120.327 26.2939 171.518 65.3527
229.878 55.0643 121.539 162.203 112.592 44.8979
236.682 50.9736 259.489 1.69485 52.1648 130.667
-350.582 -57.8536 20.642 81.8131 32.8037 62.8273
-11.0698 115.651 -50.716 4.91788 108.394 129.249
-288.773 32.4471 -45.3509 71.9932 120.911 156.814
-84.5474 -238.536 154.776 124.2 41 117.36
276.877 140.432 104.959 156.488 6.67271 20.5526
-70.1926 340.901 6.83392 93.9591 77.4357 116.925
5.40048 150.637 135.62 122.284 135.038 78.2583
125.836 114.207 -54.7612 12.0501 157.334 25.4251
-78.3039 83.7693 -246.4 90.4486 133.791 87.7915
-214.007 147.084 210.95 66.4061 109.334 98.0839
23.3234 -228.304 -159.662 156.024 146.11 140.184
180.089 6.44297 55.5733 162.887 163.026 16.2295
-23.9952 -295.925 -8.53976 140.898 140.846 82.7821
72.1394 253.151 -165.548 66.2634 169.278 97.4963
258.227 -140.447 6.17864 163.454 129.665 113.116
22.9882 -248.2 197.494 94.7357 57.1871 113.286
-20.8645 109.776 253.668 128.208 37.4936 159.993
120.745 95.1191 265.098 93.145 101.285 138.604
-199.63 119.632 -206.064 44.9921 29.4883 105.986
-233.566 -256.002 31.9004 56.4171 68.4441 85.9608
117.55 -203.109 198.392 12.9591 35.8432 46.6263
261.173 -181.33 -153.39 94.0059 175.058 80.4615
-201.867 -38.748 -325.192 9.90296 60.0909 138.251
-43.7293 174.468 -228.543 54.4123 36.4096 55.8189
-287.489 73.9143 -171.173 148.945 146.009 31.7113
-134.161 313.761 3.32715 31.5089 78.7347 131.021
-79.2085 192.775 276.095 135.902 0.956931 91.6258
-183.597 34.3816 170.223 97.4914 121.446 111.528
-10.163 -17.4686 368.624 109.257 178.041 19.7557
-343.498 -96.169 89.4035 14.7276 160.231 151.375
217.917 55.6855 151.724 172.441 27.8699 3.94816
-51.3619 168.969 -84.5053 137.983 51.2358 112.115
-37.9475 -101.355 243.743 145.029 31.3913 130.49
258.217 -46.9133 -82.2724 134.853 119.41 24.9813
305.245 -212.193 32.0453 40.0908 141.919 41.1281
146.146 194.02 86.114 117.032 139.75 35.8783
52.0475 95.361 -319.392 83.1568 68.6799 108.819
86.0571 253.57 -25.1532 77.1613 81.8179 115.124
166.009 -151.656 195.625 132.096 166.889 56.1067
223.208 -62.9681 28.0243 100.06 145.983 75.884
50.1272 -164.734 -241.509 86.1372 8.46825 132.195
-115.343 197.657 269.265 147.996 174.275 5.55696
-123.575 260.139 114.27 150.577 34.4193 18.6591
-191.012 -14.5823 31.9775 86.6879 171.894 52.2213
177.866 -151.543 161.955 113.222 78.0428 0.340421
167.542 -52.6485 36.0988 167.057 22.2292 86.697
275.99 46.291 -131.336 31.9369 53.5447 102.283
-103.13 172.711 -211.054 5.7651 5.41658 108.318
105.437 244.198 -83.2432 83.3509 70.5033 62.0951
-156.26 127.134 -62.1936 64.2911 140.968 2.35397
-283.266 -17.8448 -12.6377 96.5478 5.20478 146.002
86.0551 -255.483 195.753 82.3005 157.535 117.798
132.215 -24.5953 195.501 151.383 150.789 46.2528
4.87075 80.2232 208.621 11.0765 29.5943 165.724
43.4695 -145.399 -121.238 120.808 100.968 48.2129
-140.032 -225.537 -182.458 22.3886 162.982 149.496
-207.345 257.3 51.0819 90.5588 23.3525 92.3597
-119.602 -232.643 -212.007 131.674 28.0972 143.049
166.472 22.561 -51.7185 149.03 56.4811 23.5817
-220.16 -76.6863 32.4887 16.4718 12.1517 72.2674
89.1766 38.0131 -30.8951 3.59942 164.263 27.7102
117.454 91.6324 227.8 146.394 43.1133 170.794
-301.756 -161.208 132.541 12.6319 146.53 80.6613
-90.6856 -174.536 131.123 116.546 25.9683 77.0353
178.522 -210.415 177.023 136.954 38.151 63.8739
-84.3149 -217.256 -237.311 102.877 44.62 159.228
143.153 -141.092 -202.862 130.831 57.5934 83.6478
-5.34939 38.5405 -179.587 153.023 134.752 94.7386
-194.531 -135.133 138.443 139.547 152.576 6.32412
51.3073 10.0944 35.0457 39.3221 44.1644 42.2439
-19.3345 -28.9467 -78.6606 82.9335 130.259 101.019
-126.283 176.887 153.445 70.8534 173.929 158.128
-113.743 -324.552 30.3865 135.937 101.312 21.2251
121.348 -345.8 -136.384 132.018 121.876 33.3946
16.5515 71.2667 -5.72865 55.6834 86.9628 132.775
-74.4363 -243.659 -222.412 162.463 144.249 32.3322
210.751 -99.0796 55.33 116.283 15.4811 66.445
37.8956 -320.185 -47.7179 10.0362 151.908 2.86324
57.0017 -92.9737 -161.658 134.21 91.9033 18.1559
-96.1516 -65.8986 295.997 106.652 87.5788 47.2379
-219.326 115.969 21.3759 26.7645 104.509 104.073
-59.963 -93.1824 209.221 94.5705 90.8378 151.378
-212.823 -229.631 19.0427 177.881 1.02154 179.877
4.38031 204.182 303.801 148.983 68.8815 148.767
-202.415 -129.086 173.529 133.101 49.2202 162.429
4.7105 -36.6857 -125.899 6.94277 30.0307 3.39666
-108.269 -192.785 54.237 73.7266 170.626 123.97
244.157 43.5108 133.093 49.8133 164.358 95.0673
-195.485 241.932 27.8355 42.306 59.7245 0.727907
249.706 53.2281 77.8615 115.15 150.867 79.1412
63.3279 -278.323 163.589 1.12433 99.6185 22.9524
60.6004 234.013 255.735 159.204 131.026 176.913
-47.758 356.625 12.1483 122.161 126.921 97.9288
-41.963 -21.6688 166.857 42.9958 121.597 74.675
82.0904 73.7678 3.76499 4.76133 58.2121 122.767
208.778 -182.104 -44.5098 102.824 145.81 52.7131
-69.5619 42.3422 -183.84 20.0247 92.4238 130.653
60.0208 163.841 -214.733 75.9653 171.203 142.292
-31.8502 -152.693 18.0785 45.9229 169.229 16.8896
-153.007 -119.722 -112.342 83.1512 7.67335 59.739
-134.518 123.768 299.631 105.646 9.76228 28.5362
121.833 -310.582 36.8964 117.014 65.9534 94.8793
137.384 -251.814 70.2211 96.3943 107.294 129.38
146.736 76.5433 4.43181 37.6811 140.108 17.4093
-16.7383 -90.1626 -153.63 120.005 10.3332 116.185
291.052 100.981 -51.7264 28.0446 51.6015 157.908
-223.034 -86.3054 -20.6185 176.446 116.048 37.7662
-147.201 307.757 23.6564 79.4163 174.475 80.8015
118.388 248.338 -186.965 79.8333 150.757 66.6503
-145.092 -101.501 203.828 84.6232 164.537 80.386
-186.83 68.0054 -143.442 52.3632 81.8332 76.221
161.546 152.109 -96.8511 25.3969 31.4431 7.59715
252.414 0.504264 192.25 21.0634 153.537 11.5309
-29.5161 -346.534 -70.1994 12.1633 79.289 28.3678
-80.7136 -331.869 -38.3212 97.5578 64.7436 105.12
-196.965 198.029 9.73103 143.15 133.078 156.574
209.457 3.55661 236.282 110.36 98.5773 25.2424
146.718 123.476 194.641 43.9839 115.123 108.417
-20.488 32.5501 238.655 162.495 125.811 27.1336
-40.143 22.4092 -232.035 65.5055 40.0463 99.3784
-50.736 -219.126 107.224 29.8948 22.174 88.6021
118.34 -296.956 151.415 67.6785 110.859 32.5144
25.0329 -103.021 148.578 28.2681 109.097 9.29566
-119.665 88.1463 -112.505 73.8902 117.652 147.44
140.773 127.105 -49.1857 86.1769 76.9626 124.638
210.011 -186.465 151.056 13.7783 164.035 51.6217
20.8104 -91.3086 -17.6322 14.1387 15.3486 50.4439
180.711 123.683 110.142 160.104 176.414 143.701
263.937 -7.66412 -189.603 83.0808 60.8013 164.305
43.756 11.6131 46.5859 121.166 112.727 147.223
-150.612 -80.2322 -264.123 140.07 165.902 55.8306
-132.938 -246.446 -182.249 159.249 129.516 107.552
113.704 219.898 -87.6194 167.089 9.60664 155.461
-104.477 50.8397 -61.1285 169.063 112.029 62.8417
-213.52 -147.907 -111.204 75.539 81.4105 13.8652
-109.153 210.247 161.73 5.5061 116.845 91.3909
110.255 152.649 -23.6364 85.8617 143.381 86.4276
23.922 -328.695 -31.0028 46.4104 32.2227 74.3302
157.892 141.075 -287.064 97.519 52.6355 47.0966
-73.7237 16.8275 327.127 94.5614 142.574 17.3369
-207.11 -22.6684 312.25 94.4923 175.428 119.527
-276.538 112.611 58.8104 151.232 90.1205 105.962
187.714 1.24354 -257.904 14.7777 76.0446 127.513
-230.811 -29.6249 -229.637 14.0226 63.0491 177.362
265.058 144.842 -206.066 112.852 35.0313 68.1741
46.245 -97.7332 226.734 179.11 32.2891 174.449
24.4472 97.9866 177.866 2.99713 143.488 30.7122
113.297 207.953 -205.826 99.158 22.9038 107.227
27.042 249.684 -86.8143 2.44687 61.7444 59.843
96.0227 -38.7464 312.432 55.795 34.2653 63.114
252.042 -24.1402 102.681 36.0209 21.4813 176.395
213.99 -267.828 -94.3958 97.2901 126.195 74.9188
-250.829 -146.115 -154.802 179.866 12.8714 82.2388
-291.13 30.6811 -229.233 59.1689 45.5193 139.543
-60.7132 219.308 158.032 93.0489 179.463 156.058
179.365 -15.1151 -122.664 110.268 164.118 94.5623
163.65 -46.8185 82.5296 72.0535 170.211 41.5532
-233.65 -151.045 48.246 9.76401 178.447 152.529
161.048 -73.3862 158.912 119.831 112.718 54.7126
270.154 21.5553 -148.948 134.673 59.2527 49.6895
-15.8899 -351.925 -125.305 71.4935 89.2769 26.8714
-120.091 188.659 118.474 23.4268 64.1287 179.32
263.37 -84.095 99.4075 14.9836 6.96014 148.979
-90.8427 -84.9104 305.715 126.196 112.394 151.205
10.4796 166.893 -192.632 118.638 68.9044 108.482
345.267 -23.4296 57.189 114.993 177.369 143.82
-223.765 70.1873 7.20175 127.343 178.487 23.8863
174.682 248.14 182.018 152.743 6.29615 179.245
202.98 74.6844 -210.969 69.6669 9.27015 174.676
-77.4772 -7.12243 318.184 179.704 80.3476 3.86912
172.81 -279.823 108.338 40.7341 52.6861 100.177
-206.229 156.392 183.065 60.9095 56.7304 169.033
-71.3148 -13.3012 228.802 132.728 15.6528 81.2724
280.957 182.546 50.9293 136.154 9.88361 127.207
4.19924 337.792 57.5498 67.0446 179.365 98.452
-63.2339 9.86467 341.586 73.1321 157.917 161.833
-273.431 -148.311 63.3453 161.948 177.642 27.8982
242.476 92.9077 -240.852 76.3367 35.3628 118.03
-247.663 -207.473 70.2916 147.541 146.364 22.2202
99.3085 40.2459 98.0718 33.1884 22.1909 134.154
228.891 -5.12834 -168.03 14.7206 128.985 44.0127
135.395 -219.216 55.4688 91.3094 167.737 52.9251
195.444 -135.89 56.4974 171.204 94.2516 83.91
-40.3739 21.3229 147.213 29.7633 103.857 50.0406
3.20118 -284.96 -124.712 19.7967 81.5522 53.2506
-156.943 -103.307 137.462 171.996 124.598 160.491
263.314 87.5397 -72.0568 21.6772 65.4566 89.3477
315.034 0.823058 -27.5134 91.2522 18.6025 86.3552
-127.806 117.012 -1.5308 39.9141 61.8368 99.6125
-27.4082 -213.717 -39.7286 161.319 158.256 44.8963
323.913 -53.8674 56.1109 119.245 117.926 53.0524
220.862 224.496 -208.582 47.1247 15.4587 130.232
-217.86 -86.745 149.632 163.923 132.931 130.391
-106.894 -50.2849 -121.619 64.3981 106.171 46.573
-263.992 124.806 27.8207 133.951 154.2 176.266
46.8349 -121.614 212.025 132.383 111.933 109.794
62.7118 278.368 55.5209 123.639 86.6226 150.825
95.7704 -44.8009 -43.6846 56.897 93.7175 68.8628
-64.8574 161.413 169.312 84.1922 103.703 106.003
-240.759 242.197 -100.911 161.917 152.582 40.2754
130.653 -284.717 -27.9968 45.9985 40.6179 136.037
122.855 11.3204 -222.192 131.862 152.751 163.801
-69.5058 29.9111 193.813 140.782 51.5716 24.7243
-42.5586 320.388 -45 83.737 164.246 159.894
-46.2496 -5.34931 -233.891 175.985 21.3912 75.7413
267.965 77.8933 -7.90573 57.1694 175.185 127.989
138.996 234.521 88.321 163.164 113.579 83.2167
-21.1851 325.737 -63.5074 142.972 9.02571 134.932
140.398 61.5211 307.462 119.451 84.1426 84.0532
-184.979 -94.0707 345.854 112.061 46.2124 55.1718
-6.10363 165.584 -192.597 73.9064 139.281 40.7317
-91.3174 208.063 -101.866 179.069 140.969 102.277
-137.565 -70.5069 -202.841 172.036 45.7265 21.5249
-175.478 -90.5041 -214.192 42.5655 22.8885 21.0746
141.149 118.099 -52.2285 83.689 28.2045 37.8442
-76.6923 117.891 -111.85 46.1248 65.9415 4.79078
123.473 -261.863 -45.0897 71.3934 59.1818 110.687
-89.7875 155.384 -16.3256 119.723 148.844 118.311
288.446 -147.514 90.4646 9.59026 39.9021 28.305
-13.4212 4.5547 -57.1862 172.606 47.2854 106.282
-42.522 -55.6553 -128.889 95.0655 60.9528 0.501534
-111.867 239.267 219.042 157.536 120.145 129.572
186.873 -64.4408 263.341 139.903 12.8705 96.9365
-84.5867 -333.626 26.5329 32.5115 164.049 32.3358
-88.3125 -114.336 -63.0256 138.406 38.2829 14.8009
230.323 -122.529 73.541 157.454 126.497 86.8938
142.48 44.8163 -53.2134 145.781 150.748 17.7985
64.4904 -31.4857 -25.5178 158.097 79.4083 153.479
-34.5543 141.941 -32.182 85.3455 100.119 119.131
-145.807 -138.801 14.4253 56.728 133.457 21.406
44.6161 -53.7288 -142.958 71.6332 121.282 64.5595
-18.4381 159.14 188.029 58.793 95.2302 140.776
311.969 108.193 -99.6563 90.9697 11.6141 108.565
-42.3304 15.5015 -85.8733 10.4199 163.422 160.217
82.7424 -73.6136 229.94 66.3854 163.181 70.6931
-37.7474 194.739 -97.5684 109.34 149.084 27.6789
230.231 56.5879 108.473 89.282 85.4152 142.159
20.8371 -287.815 58.2 45.6906 120.662 32.8276
-32.3756 -39.2513 -278.744 134.711 125.139 66.2233
-50.6169 206.788 -171.032 147.849 47.0015 21.482
